26.259,74.53,2.71391,0.174325,0.962001,-0.210155,0.409661
27.7263,73.806,2.59233,0.219264,0.93402,-0.28201,0.403349
17.8401,63.4871,12.4699,0.0116266,0.99566,-0.0923396,0.258648
-21.1788,96.2123,-6.1888,-0.458736,0.704356,-0.541704,0.866896
-20.2221,95.452,-4.75858,-0.470793,0.709343,-0.524582,0.843168
-21.0714,95.3176,-5.48538,-0.470832,0.708235,-0.526041,0.851915
-20.5051,96.8231,-6.18776,-0.454098,0.704181,-0.545823,0.869303
-19.7978,96.4612,-5.5089,-0.461839,0.707383,-0.535083,0.856353
27.2575,74.0613,4.086,0.219677,0.934845,-0.278937,0.398808
-22.9868,98.0595,-4.04205,-0.416214,0.691831,-0.590031,0.883959
-21.6851,96.8676,-1.79461,-0.425678,0.695724,-0.578589,0.848895
-22.3083,97.714,-1.93226,-0.414975,0.69259,-0.590012,0.861907
-20.816,98.2923,-2.68854,-0.412963,0.693882,-0.589906,0.864378
-21.8288,98.5818,-2.1159,-0.404314,0.690928,-0.59929,0.86935
53.2768,78.8273,21.4087,0.576683,0.36645,-0.730172,0.35289
25.3218,71.537,3.01728,0.160514,0.968517,-0.190292,0.371177
24.8883,72.0439,2.20959,0.141132,0.976586,-0.16236,0.378609
17.5657,63.4671,15.4872,0.0320416,0.993011,-0.11359,0.250804
17.5155,60.8963,12.9816,0.0238258,0.995204,-0.0948743,0.224844
53.0495,79.3798,22.0863,0.578803,0.367832,-0.727796,0.346924
24.1099,72.7803,4.8685,0.140567,0.979578,-0.143763,0.380947
27.1663,64.0998,-2.15275,0.156545,0.968162,-0.195337,0.313726
32.0461,72.4374,0.00736965,0.326863,0.836269,-0.440244,0.41578
32.4754,72.2084,-1.50861,0.323483,0.840232,-0.435166,0.424516
31.851,71.4129,-1.46072,0.301124,0.863788,-0.403973,0.412757
-16.0015,75.0639,3.71284,-0.649072,0.756674,-0.0784178,0.560315
-21.0292,116.768,17.8636,0.0444494,0.59359,-0.803539,0.840852
-19.6411,109.185,23.7035,-0.0160707,0.612963,-0.789948,0.721495
-17.1813,77.4109,4.91722,-0.659703,0.734989,-0.15679,0.591751
-17.8616,76.6346,5.65562,-0.665175,0.730447,-0.154885,0.588512
-29.4988,30.5927,22.748,-0.433452,0.6816,0.589525,0.297281
-30.2313,30.314,22.7201,-0.428202,0.68234,0.592499,0.298876
-31.1361,33.4973,22.6478,-0.446571,0.679546,0.582058,0.332056
-30.1209,33.6641,22.7175,-0.451166,0.679389,0.578688,0.32784
-31.0108,32.9908,24.1911,-0.445457,0.679883,0.582518,0.338467
-31.2361,33.7452,23.6139,-0.449385,0.679451,0.579999,0.342182
-29.9957,33.1576,24.2608,-0.451383,0.679683,0.578173,0.334251
-30.221,33.912,23.6836,-0.454224,0.679443,0.576228,0.337965
-27.4834,40.6781,27.3068,-0.513821,0.682819,0.519371,0.405626
-27.7182,38.8374,28.6315,-0.502553,0.681245,0.532302,0.400533
-26.8309,38.7913,25.6659,-0.500175,0.681324,0.534437,0.373302
-29.5829,39.1854,28.5288,-0.496889,0.680563,0.538457,0.415551
-28.9436,39.8398,28.6459,-0.503355,0.681276,0.531505,0.417665
-28.9567,40.4914,27.9354,-0.507334,0.681766,0.527075,0.418528
56.392,73.0536,8.3565,0.59293,0.282691,-0.754003,0.482927
62.4601,72.5693,11.328,0.600345,0.261742,-0.755696,0.49901
-26.5675,38.9125,27.8746,-0.506026,0.681739,0.528365,0.388047
-30.3867,39.4132,28.4176,-0.494124,0.68027,0.541364,0.422225
-30.2611,39.6571,27.3674,-0.495326,0.680402,0.540098,0.416001
-30.4099,39.1585,27.3241,-0.489906,0.679976,0.54555,0.412333
-26.2212,38.1136,26.0097,-0.499575,0.681119,0.535258,0.365634
-26.1381,38.2636,26.9504,-0.501401,0.681238,0.533397,0.373119
-26.9305,37.7158,26.7479,-0.495876,0.680693,0.539226,0.372322
-34.9515,41.8731,13.0768,-0.461338,0.676559,0.573965,0.359382
-19.6392,33.7486,18.3856,-0.483223,0.681199,0.549966,0.229983
-17.9394,34.6347,13.1476,-0.483214,0.682809,0.547974,0.189146
-20.4331,34.9779,15.6198,-0.480867,0.681723,0.55138,0.226251
-20.6394,29.1472,8.48666,-0.434113,0.673892,0.597842,0.122094
-33.9635,32.7693,16.6624,-0.415522,0.679165,0.605043,0.295391
-33.9714,42.0415,23.8737,-0.483539,0.679516,0.551768,0.436312
-34.3534,43.3755,21.3137,-0.487416,0.680203,0.547494,0.432724
-33.4363,43.3772,20.8856,-0.490808,0.680765,0.543752,0.423956
-34.0668,36.2726,26.2303,-0.455119,0.678208,0.576975,0.401861
-35.0103,35.1952,26.6082,-0.446775,0.678348,0.583297,0.400767
-36.2893,34.9628,25.8704,-0.437329,0.678774,0.589923,0.400528
-34.7021,35.0024,25.9599,-0.444632,0.678548,0.584701,0.3922
-36.4779,35.9759,26.5192,-0.445062,0.678214,0.584761,0.415826
-34.8309,35.7886,25.0964,-0.447058,0.67839,0.583032,0.39345
-35.6596,36.1903,26.9237,-0.449775,0.678141,0.581229,0.416013
15.5886,64.5161,14.9822,-0.0404206,0.999013,-0.0183938,0.273919
16.2349,64.7337,14.2818,-0.0263362,0.999019,-0.035608,0.275838
13.597,66.8689,9.69161,-0.111141,0.988716,0.100438,0.316746
14.5162,65.9778,9.63531,-0.0854029,0.993838,0.0706509,0.303502
46.6752,72.1693,24.0485,0.64688,0.235749,-0.725237,0.247848
16.5916,67.09,7.95261,-0.0475767,0.995642,0.0802078,0.314493
-36.9866,25.8958,5.47821,-0.373786,0.671472,0.639851,0.154842
14.1955,63.0664,12.0376,-0.0822361,0.995875,0.0383517,0.265259
13.9091,63.2992,13.0119,-0.0881804,0.995267,0.0408336,0.268328
15.5352,62.091,12.4985,-0.0390767,0.999149,-0.0131922,0.247317
14.4945,61.587,13.0231,-0.0620368,0.997951,0.0156364,0.243854
13.9241,62.0657,12.3738,-0.0819169,0.995888,0.0386932,0.253552
14.2081,61.8198,13.9974,-0.0642818,0.997827,0.0144914,0.246923
13.6378,62.2985,13.3482,-0.0872199,0.99535,0.0408841,0.25662
56.9126,73.3175,19.3294,0.593479,0.316422,-0.740041,0.378971
13.958,62.9435,8.34742,-0.0967667,0.991622,0.0855702,0.267387
14.6765,61.6425,8.09283,-0.080684,0.994424,0.0679099,0.24978
23.6848,69.334,5.25916,0.140082,0.976456,-0.164048,0.340321
-35.6205,28.3863,6.63208,-0.380048,0.670858,0.636799,0.180655
-37.192,26.2509,6.54843,-0.372092,0.673216,0.639005,0.168066
-34.5251,25.8553,5.69326,-0.375771,0.671149,0.639027,0.143769
-36.1418,27.9496,7.58256,-0.378077,0.672757,0.635969,0.187162
18.0785,68.0828,5.62491,-0.00206424,0.997056,0.0766439,0.326414
11.0232,83.1227,-25.3818,-0.340354,0.931582,0.127726,0.464658
13.691,67.0111,3.64081,-0.0852042,0.978927,0.185585,0.315223
15.4038,68.5161,4.41074,-0.0581236,0.985848,0.157245,0.331829
14.7303,69.1806,4.31385,-0.0681672,0.982373,0.17406,0.339958
13.3995,66.471,4.41925,-0.0986189,0.979833,0.173784,0.310066
20.1436,62.6128,9.42643,0.0445173,0.99002,-0.133713,0.251906
18.3766,63.1309,10.8849,-0.0151821,0.995922,-0.0889295,0.257046
20.3107,61.7893,8.84201,0.0616246,0.988483,-0.138218,0.243818
20.5399,60.7269,9.29544,0.0763099,0.985515,-0.151451,0.229581
-22.8008,48.4564,23.277,-0.551242,0.696164,0.459878,0.415261
-22.0284,50.4304,24.8875,-0.560355,0.698739,0.44471,0.43726
-23.6212,49.3697,25.9934,-0.554751,0.69481,0.457701,0.446252
17.4619,63.4098,10.2993,-0.0257234,0.998478,-0.0487901,0.264036
16.7643,62.7203,9.93739,-0.0339085,0.9992,-0.0211931,0.257086
18.1022,63.5392,9.36059,-0.0298409,0.998642,-0.042705,0.266955
17.4046,62.8496,8.99865,-0.0305343,0.999279,-0.0225644,0.260004
19.4732,63.4965,9.36014,0.0154219,0.995462,-0.0939019,0.264264
19.477,63.5292,10.4435,0.0223168,0.992906,-0.116787,0.261578
-32.4485,26.1328,3.66516,-0.379229,0.668255,0.640016,0.118601
48.8954,72.9108,25.6836,0.65096,0.260775,-0.712915,0.252326
10.2347,84.5328,-23.6983,-0.377976,0.917985,0.120154,0.485751
49.2413,72.2039,26.5982,0.651572,0.259274,-0.712903,0.243562
7.91984,87.722,-17.5082,-0.482304,0.870625,0.0969225,0.538327
-33.8543,25.381,3.51971,-0.377192,0.668631,0.640827,0.117735
-34.4012,25.1748,4.20445,-0.37613,0.669874,0.640152,0.124436
-34.0333,25.0703,5.1324,-0.375307,0.671209,0.639236,0.129323
-33.2492,24.9962,3.43338,-0.377416,0.668746,0.640575,0.110342
-32.7036,25.0854,4.25207,-0.377161,0.669326,0.640119,0.115307
-32.6395,25.4081,3.84475,-0.37807,0.668591,0.64035,0.114481
-1.99099,81.3588,-18.0835,-0.37646,0.917334,0.129526,0.510841
24.3899,56.9589,11.0654,0.207636,0.923376,-0.322899,0.179712
21.5017,60.1,-1.11236,0.0317648,0.999495,0.00037773,0.240779
20.371,56.0874,7.28741,0.071863,0.990805,-0.114639,0.178463
-30.7843,31.5077,13.074,-0.416332,0.677091,0.606808,0.237768
54.0447,69.2064,18.2456,0.604459,0.284225,-0.744208,0.351463
21.5308,58.2784,10.9191,0.125659,0.968955,-0.212921,0.193768
23.8547,57.4982,10.5055,0.189691,0.935807,-0.297126,0.187883
18.0861,59.5407,6.90745,0.00621052,0.999617,-0.0269623,0.221283
8.89785,83.1178,-12.4101,-0.673547,0.738022,0.0407089,0.482892
-36.9419,29.5468,18.2957,-0.385664,0.686977,0.615894,0.294141
-34.6547,30.3153,5.21611,-0.386781,0.668013,0.635734,0.181752
-33.9408,30.9406,5.6647,-0.390799,0.668411,0.632853,0.187705
-36.7285,32.6416,4.32056,-0.387028,0.666798,0.636859,0.206054
-37.4665,32.4298,4.88078,-0.386083,0.666781,0.637451,0.212543
-37.0272,32.721,5.13286,-0.388883,0.667186,0.635321,0.215233
49.7831,74.4178,25.289,0.651423,0.271706,-0.708395,0.269185
49.2955,74.7496,26.1072,0.656172,0.270804,-0.704346,0.258586
-28.1096,27.9065,6.20482,-0.395661,0.67091,0.627163,0.133792
-25.3102,27.4773,5.90961,-0.401031,0.671022,0.623622,0.112482
-26.0161,27.1557,6.40158,-0.398674,0.67127,0.624864,0.117369
-25.8209,27.0441,5.58195,-0.396666,0.670806,0.626638,0.108548
-24.5045,26.0965,4.86764,-0.394018,0.670777,0.628337,0.0869654
-23.973,26.6471,5.23921,-0.400561,0.67092,0.624033,0.0921678
-23.9308,27.0683,5.96133,-0.403779,0.671062,0.621803,0.101645
-23.5905,26.6823,5.98611,-0.403976,0.671171,0.621557,0.0965174
-24.2342,24.2202,7.53769,-0.391066,0.673042,0.62776,0.0905852
-25.0289,23.7143,7.00537,-0.386517,0.672948,0.63067,0.0858864
-26.0244,25.1367,5.73573,-0.385496,0.671196,0.633158,0.0934901
-25.4386,23.9681,7.78136,-0.387091,0.673513,0.629715,0.0966978
-24.6439,24.4739,8.31368,-0.39256,0.673586,0.626241,0.101396
-25.3436,26.3584,4.64645,-0.391907,0.670604,0.629841,0.0919452
-25.9335,26.5393,5.34921,-0.392893,0.670609,0.62922,0.102563
-26.0495,26.0368,5.13842,-0.38894,0.670712,0.631562,0.0968323
-25.0797,24.5556,5.14277,-0.385645,0.671327,0.632928,0.0782997
-24.6883,24.0676,5.95327,-0.386063,0.672056,0.631899,0.0785631
-24.2657,25.1938,4.76665,-0.38976,0.671212,0.630525,0.0766621
-23.8743,24.7058,5.57715,-0.389671,0.671663,0.630099,0.0769255
-26.8215,29.838,5.49264,-0.405378,0.670753,0.621095,0.138905
-25.7725,29.6759,5.66341,-0.408226,0.671127,0.618822,0.133138
-25.6546,28.8793,6.25294,-0.406182,0.671251,0.620031,0.129974
-25.5485,29.3042,7.1461,-0.411342,0.671749,0.616078,0.140687
-25.6665,30.1008,6.55656,-0.413213,0.671628,0.614956,0.143851
-27.1761,30.7128,5.71655,-0.407625,0.670801,0.619571,0.150829
-27.9352,30.6716,6.21355,-0.406652,0.670783,0.620229,0.158634
-27.4258,30.8519,6.37645,-0.410952,0.67113,0.617011,0.15895
-18.0513,34.9407,24.4319,-0.506485,0.682637,0.526763,0.271118
4.96284,85.3448,-15.6932,-0.476835,0.873304,0.0998414,0.529112
-7.91094,85.269,-0.859391,-0.576642,0.802167,-0.154959,0.617728
-0.0584368,83.2203,-2.9381,-0.517473,0.855088,0.0323412,0.543021
-2.16489,70.6473,-11.1987,-0.331483,0.921768,0.201155,0.38619
0.0284978,79.9183,-9.27742,-0.45436,0.884671,0.104473,0.498963
6.42519,80.9068,-7.69109,-0.533691,0.839113,0.105181,0.477326
6.71803,79.2983,-7.08899,-0.507572,0.852624,0.124106,0.458312
7.032,80.3596,-6.69662,-0.522146,0.845185,0.114128,0.468854
-5.76767,78.0064,-17.606,-0.356839,0.923623,0.13995,0.48793
6.08438,78.8606,-6.39456,-0.472997,0.870766,0.134312,0.457442
5.80851,79.6366,-5.48236,-0.476763,0.869749,0.127412,0.468595
-5.65771,75.949,-16.3359,-0.360386,0.921549,0.144465,0.463852
-4.90213,80.7349,-13.7486,-0.434423,0.895842,0.093513,0.531231
4.77801,82.1059,-6.20876,-0.507738,0.856027,0.0970577,0.501262
10.6954,84.587,-42.8991,-0.102685,0.982222,0.157152,0.466469
-4.02462,79.0056,-45.7212,-0.0152212,0.986065,0.165662,0.400693
-4.40798,80.8772,-8.63919,-0.487834,0.871433,0.0512048,0.539736
-5.81871,78.7591,-9.70678,-0.473669,0.878162,0.0668506,0.520762
4.58623,84.3667,-40.2021,-0.126308,0.979439,0.157307,0.476526
8.1012,82.7406,-41.9938,-0.100026,0.982373,0.15792,0.447756
9.01639,83.8285,-43.4661,-0.0889483,0.983385,0.158245,0.458416
-23.2933,124.945,17.417,0.109975,0.573065,-0.812097,0.904955
8.38938,82.8414,-40.8708,-0.112513,0.981152,0.157105,0.45021
5.74933,85.1673,-8.25364,-0.532094,0.84302,0.0787008,0.528023
5.81703,85.7881,-7.32374,-0.526503,0.846604,0.0778208,0.534992
-21.6641,115.475,9.72599,-0.00520203,0.603361,-0.797452,0.915458
-1.3497,72.3499,5.7463,-0.49806,0.853803,0.151514,0.431459
-19.368,116.759,9.79067,0.0112827,0.600359,-0.799651,0.924173
3.97386,85.8811,-6.69721,-0.518371,0.85263,0.0656764,0.547965
3.09473,85.2498,-7.1723,-0.514362,0.855124,0.0647688,0.546287
4.64297,87.5833,-6.81272,-0.52247,0.850519,0.0603475,0.562616
3.97927,86.971,-6.46304,-0.520851,0.851595,0.0591589,0.56014
3.69552,87.3349,-6.7762,-0.521433,0.851578,0.054059,0.565926
2.85826,87.1619,-10.2014,-0.508872,0.857732,0.0731144,0.567767
2.35964,87.1211,-9.34418,-0.510676,0.857306,0.0650881,0.571115
3.61334,87.9287,-9.99777,-0.513116,0.855247,0.0725519,0.571712
2.66392,88.0987,-8.95521,-0.514002,0.855578,0.0615504,0.580531
3.58227,88.4485,-9.23945,-0.513942,0.855191,0.0671651,0.578292
2.18186,68.1204,-65.1724,0.235166,0.960557,0.148417,0.22102
1.39309,68.1792,-65.7081,0.233784,0.960844,0.148742,0.219119
2.83625,67.8221,-65.9481,0.242373,0.958708,0.148773,0.217444
2.04747,67.8809,-66.4839,0.238683,0.959609,0.148934,0.215543
7.53966,79.0206,-10.3566,-0.553375,0.825898,0.10802,0.4481
13.8508,77.3451,-17.7595,-0.515321,0.852404,0.0886133,0.392998
9.15827,74.759,-59.6341,0.111106,0.980431,0.162515,0.324471
14.3927,78.2784,-17.3931,-0.56812,0.819849,0.0713267,0.399466
16.1267,75.2365,-17.2212,-0.482699,0.869541,0.104406,0.35821
9.20067,80.2312,-7.612,-0.607745,0.788986,0.0902666,0.45437
7.54662,78.5019,-6.81236,-0.521374,0.843128,0.131546,0.445722
8.56538,78.7079,-6.92194,-0.541276,0.831467,0.125227,0.442962
8.18982,78.3704,-7.71138,-0.526941,0.839967,0.129571,0.440115
9.01284,79.1667,-6.94184,-0.550855,0.826076,0.118986,0.445416
9.43535,79.6126,-7.05762,-0.580894,0.807314,0.103959,0.44768
8.79216,79.7441,-6.1586,-0.550006,0.827222,0.114874,0.453287
-6.14076,82.6058,-25.2135,-0.283519,0.946991,0.151081,0.52103
-5.11902,81.7826,-25.8528,-0.274275,0.949469,0.152586,0.504495
-6.15025,75.4144,-14.7936,-0.379239,0.91485,0.138663,0.464529
-5.99439,77.0192,-13.905,-0.403794,0.906901,0.120341,0.488116
-4.5074,74.6727,-15.4041,-0.354206,0.922392,0.154047,0.442913
-1.19023,79.9076,-2.99106,-0.496649,0.86519,0.0691839,0.510817
2.26928,76.686,-11.4434,-0.367191,0.915424,0.16483,0.443247
15.7457,75.7709,-18.0729,-0.48644,0.868404,0.0961796,0.365281
16.8865,76.8715,-16.9585,-0.566171,0.820908,0.0745655,0.368959
16.4041,77.7056,-16.7785,-0.586209,0.807265,0.0684234,0.380382
16.7784,76.5631,-15.5605,-0.568734,0.818368,0.0825586,0.366693
16.3249,77.4685,-15.8823,-0.591466,0.803135,0.0717062,0.378525
13.5582,77.5711,-14.6894,-0.561834,0.822179,0.0914539,0.398786
13.204,78.2273,-15.6151,-0.568845,0.818373,0.0817396,0.406618
0.493025,77.5415,-14.5606,-0.36823,0.917607,0.149678,0.457372
8.08316,79.155,-15.6005,-0.468433,0.876365,0.112046,0.441665
14.3199,75.213,-15.0103,-0.46939,0.87375,0.127415,0.370084
14.8981,74.7603,-15.7607,-0.451095,0.882934,0.130155,0.361352
16.2276,77.3096,-17.7596,-0.551815,0.830692,0.0738265,0.378066
15.7451,78.1437,-17.5797,-0.575452,0.815038,0.0675864,0.389489
-19.5368,91.8239,-0.974897,-0.515053,0.722571,-0.461098,0.777088
-20.3737,91.6131,-0.477624,-0.510185,0.718983,-0.471991,0.778084
40.8988,59.4455,13.0709,0.540056,0.440825,-0.716947,0.258303
41.8629,59.9626,13.6369,0.549364,0.415611,-0.724891,0.263139
9.08807,71.3764,-59.3905,0.133332,0.977885,0.161134,0.283058
8.805,71.5839,-58.465,0.121514,0.979291,0.161935,0.286432
9.63217,72.7657,-59.9142,0.125802,0.978799,0.161638,0.29999
9.90738,71.9785,-59.4172,0.125449,0.978844,0.161637,0.291361
9.62431,72.1859,-58.4917,0.117111,0.979797,0.162119,0.294735
28.6628,59.2048,17.0552,0.387632,0.708427,-0.589807,0.167426
33.7979,61.5163,19.4466,0.530974,0.427853,-0.731443,0.172547
35.3626,62.7579,19.2559,0.558389,0.349092,-0.752553,0.188038
34.37,61.3326,20.4662,0.541963,0.402327,-0.737841,0.16345
35.7709,60.9912,19.6277,0.5538,0.374046,-0.743905,0.176741
35.4241,61.9571,20.2679,0.554642,0.367579,-0.746497,0.173673
34.4263,60.1985,20.6071,0.539147,0.414955,-0.732894,0.156395
34.7326,59.8896,19.5583,0.530506,0.440022,-0.72453,0.166502
35.262,60.0895,19.8763,0.544632,0.402372,-0.735849,0.166852
38.4518,62.8945,20.3401,0.584443,0.288852,-0.758281,0.193249
36.0006,62.6338,17.648,0.55351,0.365469,-0.748371,0.20662
36.1223,62.6896,18.6195,0.561894,0.341028,-0.753641,0.197986
36.6532,63.6633,19.5491,0.573373,0.305043,-0.76039,0.194908
36.5618,64.3074,18.7591,0.572055,0.305021,-0.76139,0.205922
36.4886,60.6423,14.2125,0.517777,0.473743,-0.712372,0.229827
34.9842,61.4666,14.0257,0.495492,0.522998,-0.693514,0.229494
39.7784,59.1839,17.9221,0.55584,0.391814,-0.73316,0.206197
40.437,58.781,17.6729,0.555328,0.396007,-0.731293,0.210722
35.8625,61.035,15.4533,0.522721,0.455982,-0.720308,0.217689
35.5303,60.5395,14.6353,0.507972,0.494607,-0.705215,0.220493
38.1101,62.757,9.8019,0.507767,0.517549,-0.688705,0.291051
42.5208,67.5212,14.9522,0.586955,0.287807,-0.756737,0.293516
-24.9649,47.99,22.8984,-0.543014,0.693051,0.474147,0.424105
39.6729,65.2618,9.69155,0.537039,0.438674,-0.720524,0.31589
43.5214,62.2605,11.2252,0.551818,0.410247,-0.726082,0.30921
38.7941,65.2277,11.1811,0.541475,0.421302,-0.727536,0.297403
36.8599,65.3979,9.93061,0.51823,0.483756,-0.705279,0.300208
42.9537,68.1866,14.5328,0.587281,0.288926,-0.756057,0.303566
39.5247,65.949,10.7422,0.54524,0.411536,-0.730309,0.309226
-20.7439,41.8441,17.4966,-0.517702,0.691995,0.503119,0.303233
-24.9756,46.0032,21.2688,-0.532709,0.691234,0.488279,0.395294
-25.4649,39.4963,20.9332,-0.497283,0.682375,0.535793,0.337304
37.9274,60.4633,16.6599,0.549294,0.3987,-0.734381,0.213966
-24.5788,38.056,18.2803,-0.487383,0.681769,0.545572,0.299817
37.2325,58.7437,17.1045,0.534065,0.445484,-0.718553,0.195799
37.9365,58.3759,17.7563,0.541366,0.428874,-0.72318,0.191739
-8.79091,51.0496,12.9724,-0.521649,0.750458,0.405827,0.27848
-8.06344,50.8393,12.579,-0.516345,0.754167,0.405734,0.269137
39.4182,52.1544,17.884,0.530148,0.470116,-0.705644,0.157267
-20.5393,60.6248,14.0313,-0.571146,0.737203,0.361004,0.465436
38.7454,53.3242,18.7023,0.533515,0.460187,-0.70964,0.154245
38.5836,53.726,17.8847,0.526606,0.477039,-0.703648,0.16282
38.9253,55.1785,18.9353,0.538387,0.445732,-0.715166,0.166203
38.8626,55.1329,17.8723,0.533837,0.457636,-0.711047,0.174648
32.4383,58.2787,19.286,0.487336,0.541321,-0.685183,0.147797
33.0403,58.1079,18.5885,0.490394,0.538145,-0.685503,0.156015
33.2657,60.4964,18.7575,0.511086,0.4809,-0.712409,0.171529
34.1211,58.6868,18.371,0.505889,0.503144,-0.700659,0.16717
34.4827,59.5073,17.7304,0.508466,0.49398,-0.705299,0.180401
33.7826,59.1833,19.369,0.510267,0.490591,-0.706362,0.159307
34.1442,60.0038,18.7283,0.515236,0.476517,-0.712365,0.172537
-31.0574,47.416,17.4567,-0.515446,0.687699,0.511259,0.423902
-34.1985,34.7703,15.5388,-0.426351,0.676153,0.600868,0.306555
0.387057,68.2637,-62.1317,0.200554,0.966997,0.157144,0.224766
3.45381,68.8113,-63.5574,0.218181,0.964049,0.151682,0.235176
43.815,60.2788,20.2184,0.585498,0.318139,-0.74564,0.217912
43.6904,59.393,19.8336,0.58146,0.32949,-0.743869,0.216294
-20.0703,41.0264,21.6966,-0.522341,0.688917,0.502547,0.319152
-19.4237,42.5264,28.3232,-0.539655,0.689695,0.482797,0.370373
-26.4443,38.5713,18.9904,-0.485912,0.681206,0.547583,0.321568
-25.5213,39.6365,19.253,-0.494316,0.682721,0.538093,0.327142
-25.9556,37.5324,18.6486,-0.481979,0.680764,0.551595,0.306536
-24.7703,45.04,19.282,-0.525524,0.690503,0.497021,0.371996
-15.5517,38.6163,22.8326,-0.525477,0.689627,0.498286,0.273337
-15.5312,97.9142,13.5879,-0.317441,0.693912,-0.646311,0.717243
-19.6642,38.9192,23.4669,-0.518368,0.68608,0.510479,0.3097
-13.1556,43.4354,28.3982,-0.55217,0.697521,0.456697,0.331031
57.0053,72.3177,8.15329,0.593649,0.280264,-0.754342,0.4866
57.8599,72.342,8.50754,0.594757,0.27709,-0.754643,0.489826
-19.2839,39.7463,14.9159,-0.506797,0.690295,0.516381,0.25686
-10.2242,42.2383,18.8021,-0.536688,0.705826,0.46236,0.240072
-22.7322,34.5986,13.034,-0.465572,0.678966,0.567669,0.218647
-21.9058,35.3981,25.0977,-0.496065,0.681095,0.538543,0.306578
-27.6246,117.29,10.3908,0.00998146,0.597903,-0.801506,0.925191
-22.522,38.8088,26.0985,-0.51428,0.683485,0.518039,0.34687
-17.8088,35.7361,14.5676,-0.488891,0.684126,0.541255,0.208309
-2.58399,90.462,-30.0757,-0.263355,0.95341,0.14715,0.595179
-22.198,33.3189,22.5293,-0.482233,0.680149,0.552131,0.272655
-28.746,46.5673,14.8373,-0.513675,0.689689,0.510361,0.382774
-30.6979,46.459,17.2056,-0.511575,0.686885,0.516218,0.410515
-22.8949,34.3809,15.5161,-0.468521,0.679438,0.56467,0.235913
-17.2158,41.2608,14.2982,-0.514601,0.696443,0.500153,0.252621
-18.0761,41.3778,15.1114,-0.515773,0.695392,0.500408,0.264957
-18.2924,39.4072,23.2158,-0.523542,0.688125,0.502382,0.302487
-10.7096,42.6928,27.8961,-0.552167,0.699365,0.453872,0.303072
-11.8711,44.6551,28.1615,-0.556457,0.70111,0.445871,0.330106
-16.056,34.9952,20.1489,-0.503374,0.684174,0.52775,0.228325
-20.9352,32.0112,14.5115,-0.462093,0.678601,0.570938,0.195011
60.825,70.6358,19.9677,0.603077,0.284067,-0.745388,0.393377
-28.8128,18.0894,18.3827,-0.32045,0.716797,0.619285,0.146716
-29.3248,18.3363,20.7585,-0.325945,0.716028,0.617304,0.170502
-32.186,20.2377,23.318,-0.334745,0.713749,0.61523,0.222776
-31.4108,17.7867,20.9833,-0.304262,0.725878,0.616868,0.176908
-26.6303,22.4742,10.9525,-0.376874,0.681274,0.62756,0.115445
-29.9939,17.8799,17.9991,-0.300845,0.726103,0.618277,0.14736
-23.1348,35.6283,24.2247,-0.492493,0.680874,0.54209,0.310826
-20.1358,37.4233,21.0686,-0.505444,0.684386,0.525492,0.283767
-10.2467,62.3958,3.88927,-0.512591,0.814376,0.272108,0.371613
-19.5497,41.0103,20.615,-0.521701,0.689686,0.502157,0.308185
-19.0381,41.8549,20.5995,-0.525894,0.691467,0.495287,0.31192
2.1119,77.0914,-36.2112,-0.123704,0.978939,0.162407,0.394751
-17.912,42.6615,17.3878,-0.525716,0.696951,0.487732,0.290564
1.56282,79.8164,-44.191,-0.0477626,0.985503,0.162794,0.413046
-23.5897,46.0724,18.6891,-0.529592,0.693697,0.488176,0.369681
4.47362,78.8923,-48.2996,-0.0056098,0.986559,0.163309,0.391545
-11.2831,51.5795,17.2812,-0.545974,0.734147,0.40366,0.324722
-28.9123,44.0442,23.0487,-0.518113,0.684872,0.512357,0.416209
-28.4074,45.7505,25.149,-0.527414,0.686058,0.501157,0.442477
-34.6001,34.1813,14.3888,-0.417501,0.676097,0.607112,0.294007
-27.1215,44.2494,24.4909,-0.526001,0.686136,0.502534,0.415592
-29.1481,44.2822,23.933,-0.520346,0.684829,0.510145,0.425982
-17.4241,52.8223,20.8213,-0.565113,0.713306,0.414538,0.401354
-19.3335,50.9122,20.3285,-0.557148,0.707477,0.434814,0.394782
-15.429,113.98,18.5577,0.0234661,0.601763,-0.79833,0.811663
-17.5411,52.393,19.9848,-0.561172,0.713895,0.418855,0.393517
-27.9469,112.279,14.2913,-0.0378194,0.610721,-0.790942,0.848675
-28.3562,112.242,16.5239,-0.023863,0.608094,-0.793506,0.824926
-9.28112,47.1672,16.9732,-0.536953,0.728491,0.42542,0.267103
-24.9754,41.4759,29.0354,-0.522714,0.684247,0.508504,0.406763
-20.4557,48.6954,27.1849,-0.560058,0.697102,0.447644,0.423851
-19.003,50.6829,25.61,-0.566074,0.702743,0.430943,0.421153
-19.699,49.0323,26.2843,-0.561269,0.698928,0.443256,0.415718
-19.5313,49.8101,25.5541,-0.562656,0.700689,0.438695,0.41699
-19.8121,50.9851,24.9769,-0.565465,0.70262,0.431943,0.426171
-20.21,48.986,28.1207,-0.561332,0.69745,0.4455,0.43019
-27.0598,18.6301,16.7286,-0.343947,0.704088,0.621257,0.12981
-27.4527,19.6871,17.1687,-0.351226,0.701645,0.619947,0.144918
-29.9311,20.6669,15.9962,-0.34261,0.704541,0.621483,0.157003
-13.1089,52.3384,16.6625,-0.548457,0.732113,0.403987,0.341968
-7.30792,47.3927,18.4169,-0.541056,0.72947,0.418487,0.262656
-15.2151,96.1187,13.3225,-0.367659,0.707717,-0.603295,0.702585
-23.3575,39.6577,27.5868,-0.518408,0.683625,0.513722,0.370052
-13.0371,47.0186,16.5223,-0.537272,0.717461,0.443382,0.290527
-15.8956,42.9806,19.8031,-0.535451,0.698936,0.474111,0.294374
-15.8397,44.5051,17.8636,-0.535337,0.70532,0.464692,0.295574
-26.0536,40.8369,26.4652,-0.515841,0.683433,0.516554,0.391335
-27.2174,99.7842,9.88578,-0.269771,0.660433,-0.700751,0.804992
-9.3933,37.757,17.2423,-0.525801,0.697911,0.486266,0.184555
-18.8064,48.9175,24.1283,-0.559614,0.701112,0.441897,0.395181
-20.1607,49.6954,23.7924,-0.560191,0.701113,0.441165,0.410257
-19.9931,48.3928,20.6445,-0.549457,0.701937,0.45319,0.37819
-20.378,47.3814,21.0523,-0.546996,0.698969,0.460693,0.374232
-18.1019,49.3207,24.041,-0.560916,0.703133,0.43701,0.393017
-9.48234,64.7629,14.3615,-0.579076,0.772516,0.260556,0.426951
-26.5075,113.786,13.6776,-0.0179991,0.606157,-0.795141,0.864632
-27.4872,113.632,13.3914,-0.0248051,0.60752,-0.793917,0.867278
-24.836,112.347,15.3581,-0.0265323,0.609525,-0.792323,0.835578
-24.9112,113.365,15.3517,-0.0115327,0.6058,-0.795534,0.843031
-24.9564,112.853,15.9655,-0.014542,0.606852,-0.794682,0.832839
47.3961,60.5257,5.94439,0.550094,0.420976,-0.721232,0.373854
49.6441,62.1206,5.97942,0.559972,0.390946,-0.730474,0.401677
48.3972,61.6516,5.30681,0.553528,0.410503,-0.724634,0.394516
49.2724,60.2548,5.82495,0.5565,0.40218,-0.727021,0.38899
49.5183,62.3799,6.94591,0.56314,0.381289,-0.733138,0.39346
50.1025,61.1943,6.25718,0.561347,0.387169,-0.73143,0.397596
49.6764,60.7773,7.68489,0.563115,0.382429,-0.732564,0.37928
49.9766,61.4536,7.22367,0.563894,0.379619,-0.733426,0.389379
54.3136,67.3636,9.52908,0.589494,0.295948,-0.751606,0.431089
56.5021,60.9362,8.23865,0.587326,0.303315,-0.750366,0.432679
60.8526,63.0611,22.4468,0.614569,0.266293,-0.742558,0.341708
51.6007,72.485,15.0333,0.596079,0.293502,-0.74736,0.377611
48.3179,58.6081,7.16604,0.556106,0.40396,-0.726335,0.359368
48.8477,58.8713,8.05949,0.559383,0.394317,-0.729112,0.357875
48.9345,57.9212,7.08416,0.556455,0.403079,-0.726557,0.36105
49.6492,57.4124,7.61695,0.560956,0.38979,-0.730337,0.359872
-21.473,38.7537,17.5801,-0.500488,0.685608,0.528633,0.280668
-3.13873,61.2207,-52.0128,0.154967,0.973749,0.166725,0.149518
-42.8932,31.6005,8.81615,-0.373824,0.671521,0.639778,0.264461
-24.5241,127.735,23.537,0.119729,0.574512,-0.809692,0.858477
-17.676,48.2687,10.8762,-0.528462,0.717753,0.453385,0.301392
6.40012,73.6694,-26.3334,-0.20607,0.963723,0.169627,0.361005
-23.5778,49.6849,18.6702,-0.54664,0.700423,0.458904,0.403636
-20.8877,98.7138,15.2022,-0.264857,0.672132,-0.69144,0.727971
-41.1513,32.7121,11.2353,-0.382402,0.674045,0.632007,0.287207
-39.9742,31.4073,9.42671,-0.380303,0.67249,0.634923,0.25399
-42.887,31.191,11.1704,-0.371806,0.675891,0.636343,0.280365
-40.0743,30.0989,10.7303,-0.37416,0.676319,0.634506,0.252956
0.0850948,85.4736,-33.4104,-0.210149,0.965629,0.152964,0.514737
-18.3117,42.9277,9.52303,-0.511837,0.700199,0.497739,0.244286
-0.847748,85.6059,-30.9751,-0.238385,0.959361,0.150996,0.525114
-18.4142,42.4783,8.09051,-0.508414,0.698023,0.504261,0.231087
-19.0352,42.8315,8.91106,-0.509519,0.698159,0.502956,0.244076
-19.4684,41.2755,8.1552,-0.503597,0.694089,0.514422,0.226377
-19.282,37.5392,18.1882,-0.499509,0.684898,0.530477,0.259271
-24.5075,33.1077,6.8232,-0.436064,0.673592,0.596759,0.167485
-24.6838,34.0068,7.01458,-0.44116,0.674394,0.592089,0.178572
-23.3029,34.1877,7.95394,-0.451407,0.676095,0.582346,0.179641
-23.9723,41.2031,17.0975,-0.503703,0.686402,0.524534,0.316352
-22.0002,34.2493,15.224,-0.470572,0.679847,0.562468,0.226946
-23.9389,34.5623,7.22572,-0.449397,0.675822,0.584214,0.181267
-23.5933,31.7672,8.91703,-0.438729,0.674335,0.59396,0.16651
-4.35799,67.5639,8.35087,-0.522333,0.827522,0.205853,0.402647
-9.18451,75.5743,2.42734,-0.600537,0.799544,0.0092038,0.514601
-11.5376,116.104,14.3366,0.0458351,0.593885,-0.803243,0.87306
-9.39925,62.2647,-0.366467,-0.482129,0.837842,0.256071,0.350758
-8.53338,62.4945,0.283139,-0.475756,0.840044,0.260733,0.349433
-12.1345,65.3561,0.894949,-0.534498,0.818695,0.209881,0.412985
-12.5706,65.5945,-0.977339,-0.527498,0.826154,0.198029,0.415161
-12.5838,65.8903,0.0912144,-0.536346,0.820514,0.197711,0.421545
-9.82666,75.1799,1.29408,-0.587374,0.809006,0.0223796,0.514255
-19.0744,121.036,29.4813,0.0883605,0.589662,-0.802802,0.751358
-9.98175,60.0168,13.0369,-0.547895,0.770187,0.326531,0.377514
-11.8485,59.7515,10.3285,-0.542095,0.772711,0.330227,0.37687
-15.8618,121.171,27.1022,0.0946067,0.585875,-0.80486,0.780393
-8.29094,67.1191,3.1604,-0.517253,0.831098,0.204269,0.411673
-8.64,66.4655,3.96603,-0.526208,0.823693,0.21127,0.408324
-9.00766,67.7854,3.10375,-0.533196,0.824854,0.18793,0.424724
-9.35672,67.1318,3.90938,-0.53974,0.819185,0.193949,0.421375
-14.0479,85.7555,3.36558,-0.590002,0.751345,-0.295597,0.654898
-14.8387,115.433,16.2047,0.0347109,0.597303,-0.801264,0.847758
-0.967544,79.7047,-38.803,-0.0968302,0.981929,0.1626,0.427174
-15.2564,116.132,18.2504,0.0465951,0.594539,-0.802715,0.832888
-3.43998,61.4685,1.27523,-0.408229,0.86651,0.287245,0.306597
-3.6616,60.4603,1.29263,-0.40718,0.863468,0.297704,0.295641
-2.62287,60.9984,1.73904,-0.400237,0.868542,0.292309,0.297506
-2.84449,59.9902,1.75644,-0.400342,0.865737,0.300376,0.286549
-17.0119,115.754,17.9989,0.0413439,0.595608,-0.802211,0.831992
50.854,80.714,20.9845,0.592772,0.334841,-0.732463,0.34607
-6.79346,65.1414,4.17971,-0.497936,0.833154,0.240654,0.380699
-5.06773,65.5433,2.70468,-0.461429,0.854326,0.239188,0.370131
-5.88202,65.8786,2.41413,-0.476504,0.848679,0.22954,0.378598
-5.85284,64.2789,3.50779,-0.468822,0.845713,0.254903,0.362336
-6.66713,64.6142,3.21723,-0.482556,0.840609,0.246,0.370803
-5.40644,64.6166,2.58463,-0.461257,0.851846,0.248193,0.360862
-6.22073,64.9518,2.29408,-0.473524,0.847763,0.2389,0.369329
-14.7603,118.68,15.6239,0.0701922,0.585817,-0.807398,0.880954
-13.3368,119.756,17.059,0.0845536,0.581903,-0.808851,0.876025
-12.1164,120.587,14.7153,0.0933381,0.578164,-0.810565,0.908252
-12.5951,120.136,14.0591,0.0849848,0.580679,-0.809685,0.910599
-11.9528,121.278,15.2877,0.0994797,0.576282,-0.811174,0.908538
-19.6632,51.3862,14.0228,-0.542465,0.715744,0.43982,0.364836
7.04381,68.5362,0.574133,-0.218348,0.940302,0.261066,0.343046
1.78305,61.0742,1.28576,-0.296858,0.911628,0.28427,0.273738
7.12866,66.4117,0.178151,-0.205134,0.94247,0.263952,0.317023
-0.84654,66.5182,1.20977,-0.383712,0.890141,0.245792,0.353121
-14.8844,115.697,13.6975,0.0304433,0.597917,-0.80098,0.875288
0.542334,85.082,-41.3113,-0.114678,0.980577,0.159116,0.489362
-15.2098,117.086,14.2303,0.0482633,0.592291,-0.804277,0.881573
-13.0934,118.009,15.0528,0.0644841,0.587785,-0.806443,0.881987
-13.2852,117.473,14.2592,0.0573666,0.589798,-0.805511,0.885265
-14.8703,117.037,13.2316,0.0449991,0.593144,-0.803838,0.891271
-1.56737,85.7764,-40.6235,-0.125673,0.979272,0.15885,0.502997
43.2712,74.4556,8.16781,0.552741,0.343063,-0.759464,0.397916
0.865589,84.1352,-40.6923,-0.11345,0.980679,0.159369,0.478022
1.64599,83.8308,-40.6887,-0.110062,0.981062,0.159387,0.473013
-13.1724,119.445,21.4564,0.0922274,0.582334,-0.807701,0.828257
-14.2143,119.174,22.0386,0.0906548,0.5831,-0.807326,0.819075
0.0880221,83.8309,-42.9942,-0.0829919,0.983437,0.161135,0.469442
-14.6696,122.781,22.8401,0.112091,0.576179,-0.809601,0.83902
2.74166,87.5834,-42.985,-0.109243,0.981293,0.158527,0.515237
3.47881,87.8531,-43.8434,-0.101139,0.982101,0.158899,0.516104
1.9166,87.7936,-43.7343,-0.10116,0.982059,0.159142,0.51741
2.65375,88.0633,-44.5926,-0.094929,0.982641,0.159393,0.518277
0.871169,87.3518,-43.876,-0.0994606,0.982174,0.159502,0.512669
-14.7747,120.032,21.5494,0.0948464,0.581212,-0.808206,0.830606
-13.9019,121.447,24.3015,0.105452,0.580005,-0.807758,0.813897
-0.577521,88.7978,-46.2434,-0.0702217,0.984388,0.1614,0.527468
0.0303183,88.0478,-45.9114,-0.0721189,0.98428,0.161221,0.517889
-0.129163,89.7211,-46.018,-0.0783002,0.983862,0.160887,0.539802
0.478675,88.9711,-45.6861,-0.0797805,0.983773,0.160707,0.530223
-2.19226,87.919,-45.5152,-0.0724887,0.984194,0.161576,0.518828
-2.83238,88.6271,-44.9896,-0.0782801,0.983796,0.161298,0.530138
-2.08072,87.2207,-44.6845,-0.0784573,0.983779,0.161316,0.511754
-2.72083,87.9287,-44.159,-0.083196,0.983428,0.161084,0.523064
0.342879,88.9794,-42.945,-0.112087,0.980931,0.158777,0.536681
-0.0827046,89.7983,-43.3975,-0.109274,0.981212,0.159003,0.546921
0.193504,90.1919,-44.4075,-0.099343,0.982171,0.159596,0.5493
0.86751,88.5347,-43.9594,-0.102662,0.981883,0.159268,0.527862
0.874043,89.9246,-44.8471,-0.094894,0.982582,0.159775,0.544004
0.828433,89.0162,-45.2557,-0.0880588,0.983155,0.160163,0.531374
1.12246,89.0862,-44.8515,-0.0969057,0.982413,0.159604,0.532805
41.9881,69.8101,12.6052,0.576636,0.308993,-0.756317,0.324066
38.8329,60.6003,6.84123,0.477729,0.593406,-0.6478,0.302959
-10.3239,50.2117,12.8547,-0.525437,0.742792,0.414941,0.280468
-10.4623,49.6604,13.9003,-0.529368,0.738076,0.418346,0.281891
36.744,61.8663,7.29353,0.46327,0.619914,-0.633315,0.296414
36.0308,61.875,6.44399,0.448029,0.649666,-0.61417,0.298299
38.1031,62.7659,5.93756,0.46742,0.615054,-0.635001,0.321209
38.7509,60.0262,5.91718,0.469836,0.610861,-0.637261,0.304531
-9.48124,49.2754,14.0364,-0.526792,0.740746,0.416876,0.271902
-12.3377,51.167,9.13199,-0.517305,0.750456,0.411353,0.284095
-12.4286,52.1435,9.4015,-0.519904,0.751158,0.406771,0.296169
-7.74536,56.188,10.1091,-0.504449,0.785073,0.359432,0.309041
-10.3132,57.8792,9.57246,-0.523504,0.777213,0.349119,0.342568
-14.8646,84.4338,1.26993,-0.594178,0.757345,-0.270888,0.654162
-8.29108,57.8759,8.44415,-0.502439,0.794195,0.341775,0.32338
-9.34285,49.8268,12.9909,-0.52335,0.744665,0.41422,0.270479
-14.9763,58.2499,7.28227,-0.538729,0.765448,0.35194,0.36992
-14.2275,61.2079,7.22117,-0.549829,0.778107,0.303706,0.397487
51.0452,74.0232,7.59015,0.581948,0.311056,-0.751386,0.454942
51.4951,72.64,7.32683,0.581371,0.314132,-0.750553,0.454902
50.6642,72.8396,7.86782,0.580428,0.315988,-0.750503,0.444419
52.2132,73.4551,6.95513,0.583376,0.308466,-0.751346,0.467358
51.6258,70.9687,8.73027,0.582988,0.311839,-0.750254,0.434617
51.6406,71.1743,9.83013,0.584529,0.307847,-0.750704,0.424673
53.2232,71.4457,8.86219,0.58659,0.301417,-0.751705,0.447226
53.2379,71.6514,9.96204,0.587715,0.299224,-0.751702,0.437282
53.052,73.1991,7.13207,0.584886,0.304762,-0.751684,0.470657
52.8885,72.2666,7.20816,0.584422,0.306429,-0.751367,0.464714
52.569,70.529,8.82683,0.585068,0.306553,-0.750813,0.438744
52.5838,70.7347,9.92669,0.58651,0.302846,-0.751192,0.4288
34.0152,58.2857,5.92758,0.384025,0.75132,-0.536697,0.258842
38.8372,62.4847,14.5338,0.557364,0.369417,-0.743557,0.250738
-9.69822,89.1013,-4.73926,-0.568674,0.790944,-0.225869,0.685529
37.4859,61.9903,12.8943,0.526595,0.460077,-0.714861,0.255504
40.3707,62.2663,14.0432,0.557828,0.37911,-0.738311,0.263578
39.0899,63.4863,11.6011,0.535321,0.442815,-0.719268,0.285502
-2.12956,87.911,-0.462128,-0.562029,0.818519,-0.118954,0.607295
35.0796,68.3916,10.0972,0.503933,0.517342,-0.691671,0.310933
-3.50668,88.5173,1.17984,-0.567948,0.80632,-0.165175,0.619903
37.2475,66.5034,10.374,0.535152,0.434744,-0.7243,0.304385
36.5764,66.7319,11.1637,0.534035,0.435431,-0.724711,0.295938
34.3244,69.4567,10.9982,0.50318,0.517038,-0.692446,0.30733
35.7537,64.5007,10.9367,0.499072,0.5266,-0.6882,0.280612
35.3792,50.7159,6.73811,0.392278,0.736834,-0.55063,0.192059
47.1121,66.1368,10.3899,0.57135,0.351729,-0.741516,0.363104
46.8904,66.9013,12.125,0.581171,0.322299,-0.747238,0.348658
42.2732,63.5462,11.8998,0.554643,0.395665,-0.731997,0.302302
64.2746,65.9017,28.1717,0.618657,0.267206,-0.738827,0.324853
-26.5233,115.205,6.01363,-0.0385253,0.609445,-0.791892,0.955695
40.2482,65.5848,9.27228,0.539315,0.434589,-0.721299,0.325021
42.2634,65.92,14.8626,0.583233,0.297543,-0.755848,0.285518
46.7021,62.6878,17.2415,0.588898,0.309594,-0.74656,0.278604
41.1195,71.0947,10.9213,0.568029,0.3223,-0.757275,0.341691
43.8424,68.1288,22.3098,0.620317,0.237707,-0.747464,0.229195
44.9084,66.4003,22.6904,0.619158,0.242797,-0.746789,0.22697
32.5484,52.3713,6.60793,0.345646,0.796678,-0.495815,0.18877
33.0999,52.6854,8.26941,0.377627,0.755906,-0.534793,0.185546
34.3773,52.3008,6.12181,0.375936,0.759621,-0.530705,0.203392
47.3431,67.9765,11.4486,0.579473,0.325035,-0.747371,0.363387
-7.80428,89.7814,0.442846,-0.563367,0.782921,-0.263917,0.665788
-7.20694,90.2887,-0.24751,-0.56065,0.785215,-0.262887,0.669763
24.3285,58.8552,-0.184135,0.101896,0.986826,-0.125661,0.235851
23.2985,60.4918,1.73194,0.086346,0.990468,-0.107315,0.247676
35.593,73.3547,5.58006,0.492886,0.548623,-0.675334,0.390082
35.6779,71.1732,2.79188,0.447356,0.654582,-0.609422,0.398956
-2.73952,88.7824,0.282206,-0.564716,0.810972,-0.153035,0.619603
36.4436,66.9653,0.966675,0.412665,0.719987,-0.557967,0.382761
33.5587,66.4325,1.71412,0.373202,0.776787,-0.50727,0.357664
33.8586,67.6995,0.120687,0.366724,0.787509,-0.495321,0.381201
-5.46527,87.3115,-0.594406,-0.568995,0.806126,-0.162498,0.623332
34.3155,54.6214,14.4511,0.457883,0.621644,-0.635533,0.169943
17.2524,70.6445,-3.19127,-0.166524,0.970285,0.175546,0.348638
21.4607,66.553,4.68594,0.0721959,0.994214,-0.0795345,0.308714
33.8036,61.1791,9.52198,0.42849,0.673044,-0.602833,0.259486
-35.9951,36.7905,14.8458,-0.426556,0.67462,0.602443,0.329744
36.3423,53.0407,12.1354,0.461024,0.620949,-0.633939,0.186562
37.4359,53.6303,10.8429,0.467091,0.610895,-0.639244,0.208705
32.8446,51.5098,14.983,0.434825,0.665075,-0.607127,0.129438
34.5337,62.0561,14.5844,0.502479,0.50369,-0.702717,0.227395
33.7423,63.9907,14.6772,0.504064,0.495714,-0.707239,0.236754
33.7566,61.4045,16.7472,0.508103,0.484192,-0.712312,0.199866
-5.79688,96.0095,-1.70849,-0.524223,0.764089,-0.375977,0.732992
-5.68056,95.0568,-1.62384,-0.534048,0.769882,-0.349393,0.720308
-7.19914,88.452,-4.63448,-0.565134,0.806564,-0.17343,0.65723
-6.5319,88.6788,-4.87182,-0.563019,0.810342,-0.162346,0.654994
-11.6496,88.1379,3.17993,-0.569523,0.762691,-0.306508,0.664506
-8.13987,88.2284,3.93312,-0.57104,0.778451,-0.260631,0.639208
-0.875875,82.7021,-10.9421,-0.471972,0.878049,0.0791993,0.536823
-11.2706,117.745,22.1883,0.0852984,0.585,-0.806535,0.808617
-15.1452,118.252,22.5757,0.0788471,0.587252,-0.805555,0.805489
-2.97465,78.5813,-14.8128,-0.392302,0.910835,0.128369,0.488572
-4.47375,93.8061,-2.72564,-0.549257,0.781842,-0.295024,0.699284
-4.52763,93.004,-2.57838,-0.553076,0.786669,-0.274334,0.689582
-5.95449,93.0938,-2.67544,-0.550757,0.781645,-0.292742,0.701922
-5.90061,93.8958,-2.82271,-0.546014,0.777597,-0.311789,0.711623
-5.08075,93.8029,-3.20057,-0.549278,0.781288,-0.296449,0.705379
-5.13463,93.0008,-3.05331,-0.552131,0.784486,-0.282369,0.695677
-13.1939,94.3325,-6.30318,-0.534342,0.747134,-0.395309,0.78621
-13.9696,94.3483,-5.61927,-0.526252,0.74153,-0.416164,0.789631
-11.1552,92.4089,-3.21529,-0.545157,0.762339,-0.348774,0.734421
-10.8302,92.3416,-4.87533,-0.552396,0.766047,-0.32868,0.735818
-10.4369,93.1964,-4.93818,-0.547501,0.763638,-0.342198,0.744062
-10.5321,93.4667,-3.87777,-0.541688,0.761251,-0.35647,0.74496
-7.04654,82.9955,-25.4861,-0.278301,0.948404,0.151914,0.528258
-5.69666,85.163,-27.2923,-0.273306,0.950144,0.150102,0.545767
-6.66486,74.0274,-20.6625,-0.302794,0.939475,0.160322,0.428694
-12.183,91.3072,-4.51401,-0.555042,0.764382,-0.328099,0.732315
-11.1201,91.453,-3.97752,-0.553821,0.76864,-0.320117,0.724257
-4.70167,82.2221,-27.3317,-0.260445,0.953209,0.153494,0.503706
-6.56844,84.9487,-27.1513,-0.272444,0.950261,0.150922,0.546147
-4.19741,76.8785,3.07499,-0.547132,0.834607,0.0638589,0.495491
-14.3408,115.846,15.5991,0.0403806,0.595433,-0.80239,0.857392
0.343257,86.9904,-40.6211,-0.13556,0.978167,0.157519,0.516093
-15.5922,118.609,17.3582,0.0704461,0.586364,-0.806978,0.862139
-16.1934,119.387,17.401,0.0761363,0.584422,-0.80787,0.867639
-6.07015,70.7925,-2.76112,-0.464069,0.870952,0.161504,0.429909
-5.58673,72.7259,-18.6535,-0.314014,0.934756,0.166212,0.413577
-0.306912,76.6566,1.099,-0.473796,0.872334,0.120625,0.469832
8.76997,76.0814,-6.36284,-0.405704,0.894994,0.185446,0.41436
-0.57795,79.455,1.43041,-0.503024,0.860828,0.0770835,0.502558
0.868514,69.8428,-2.42872,-0.343549,0.911588,0.225789,0.377613
-0.154259,78.6515,0.529657,-0.490929,0.866521,0.0901678,0.490946
-0.76124,78.4664,1.96131,-0.500382,0.861411,0.0871218,0.492681
-11.5234,123.99,21.2449,0.127128,0.5695,-0.812101,0.869112
-4.41745,75.5435,0.715614,-0.517932,0.850723,0.0895381,0.480851
-17.3393,121.851,21.502,0.101443,0.578861,-0.809091,0.843479
-17.4456,89.2659,2.28789,-0.540415,0.732819,-0.413435,0.71919
-13.5612,123.135,19.0122,0.116127,0.572259,-0.811809,0.883262
-12.4678,121.612,19.2392,0.108936,0.574914,-0.81093,0.869623
-19.7987,87.9632,7.04422,-0.5437,0.717036,-0.436176,0.696563
-8.64713,122.801,21.1303,0.127798,0.569449,-0.812032,0.864707
-23.837,91.6392,1.66395,-0.475481,0.701967,-0.530245,0.787772
-24.7297,91.2591,1.45166,-0.477477,0.701395,-0.529207,0.791245
-14.9258,90.2224,2.5774,-0.538852,0.740258,-0.402064,0.711033
-0.497613,83.5618,-36.6349,-0.156909,0.974932,0.157759,0.482584
7.00168,68.5271,-63.3709,0.215503,0.964575,0.152166,0.23948
2.84203,73.8841,-27.1905,-0.198813,0.965084,0.170546,0.371888
3.16041,72.1167,-8.3119,-0.271521,0.932949,0.236396,0.385808
1.92498,72.3266,-8.3753,-0.304666,0.927104,0.218303,0.393758
3.34599,70.1931,-7.68189,-0.239711,0.93547,0.259682,0.361076
21.1412,63.8678,5.05518,0.057395,0.995248,-0.0786534,0.277659
0.213111,76.6548,-11.1871,-0.381635,0.911048,0.156035,0.453571
-19.1131,88.8656,11.5124,-0.496134,0.715053,-0.492494,0.672867
-1.29067,66.4683,-5.91009,-0.318711,0.914907,0.247726,0.338867
-2.27372,66.4766,-5.02499,-0.34419,0.907123,0.2422,0.346226
2.69388,65.7354,-9.22932,-0.207584,0.936957,0.281105,0.302468
-34.4466,23.9706,19.3386,-0.334755,0.713332,0.615709,0.237407
6.64952,67.0301,-21.5735,-0.16503,0.963176,0.212267,0.28246
23.0951,59.3032,7.75967,0.139238,0.965758,-0.218915,0.218931
-16.5272,81.866,3.59841,-0.627303,0.741791,-0.237144,0.632307
-14.6542,74.3301,8.08471,-0.704098,0.707108,-0.0651557,0.542409
-14.8092,73.5642,8.37505,-0.695164,0.717987,-0.035241,0.537243
-15.8263,74.0001,9.77789,-0.713064,0.696047,-0.0840113,0.54837
-15.6712,74.7661,9.48755,-0.724582,0.679616,-0.11447,0.553536
-16.9477,73.8319,9.17859,-0.6974,0.712068,-0.0811991,0.555225
47.9666,67.8801,15.8158,0.596634,0.289145,-0.748614,0.324183
-16.4892,75.1353,9.38188,-0.719991,0.680607,-0.1356,0.561641
-3.38017,54.8483,23.305,-0.552215,0.750161,0.363753,0.327342
-1.80541,54.2756,23.1926,-0.546869,0.753558,0.364807,0.309774
-2.19146,53.1522,24.2248,-0.551234,0.746424,0.372817,0.307225
-14.542,74.1599,8.97843,-0.7136,0.697507,-0.0652564,0.540489
-14.697,73.394,9.26877,-0.704392,0.708341,-0.0456705,0.535323
-15.1869,73.7474,9.87935,-0.713864,0.696451,-0.0731798,0.542001
-15.0319,74.5133,9.589,-0.7235,0.684448,-0.089877,0.547167
-17.3241,74.5721,9.49492,-0.704942,0.699874,-0.115039,0.563024
-17.4234,75.1724,8.71828,-0.696392,0.706111,-0.12824,0.569262
-17.0924,78.5105,0.530562,-0.625446,0.765139,-0.152903,0.609505
-16.5354,77.6807,0.460428,-0.623832,0.770371,-0.131767,0.59585
-24.3071,80.1225,4.30218,-0.613065,0.720275,-0.324584,0.672351
-16.2079,80.4769,-0.564766,-0.612238,0.771783,-0.1718,0.625413
-24.1676,79.4805,7.35789,-0.620799,0.71602,-0.319254,0.653352
-23.4322,79.907,7.71445,-0.619731,0.714416,-0.324873,0.65023
-23.6984,78.6671,6.90262,-0.627189,0.718103,-0.301598,0.645559
-22.7807,78.7143,6.62066,-0.633236,0.718728,-0.287128,0.640255
-24.0597,79.3414,4.6872,-0.620844,0.72097,-0.307822,0.661965
-23.0527,79.1597,4.8419,-0.627571,0.72351,-0.287554,0.652387
-3.78373,75.0354,-45.1308,0.00840298,0.985938,0.166899,0.349452
10.3704,72.5445,-45.4124,-0.00708004,0.986588,0.163079,0.312995
9.00598,71.7752,-40.6568,-0.0519226,0.985172,0.163526,0.309499
8.82232,75.9296,-44.0577,-0.0426528,0.985942,0.161554,0.357864
11.3229,71.1772,-45.3882,-0.00243489,0.986565,0.163349,0.295112
11.1378,72.0471,-45.7388,-0.00492339,0.9866,0.163084,0.30592
11.9654,71.0678,-46.165,0.00505264,0.986545,0.163412,0.292851
11.7804,71.9377,-46.5156,0.00358823,0.986591,0.16317,0.303659
10.6264,70.3455,-42.6188,-0.0265379,0.986165,0.163632,0.287849
12.0657,74.9076,-32.1015,-0.185368,0.970202,0.156035,0.352763
13.1037,72.9344,-31.2739,-0.182128,0.970444,0.15833,0.326122
12.7611,75.5382,-31.7398,-0.195177,0.968613,0.153932,0.359307
13.6095,74.6401,-29.8016,-0.215159,0.964492,0.153171,0.347911
10.0421,68.4633,-41.9948,-0.0250047,0.98604,0.164619,0.265372
9.03638,68.3708,-42.0392,-0.0164082,0.98616,0.164982,0.264838
10.4671,69.0714,-42.4178,-0.0240615,0.986137,0.164181,0.272374
10.1773,69.754,-43.0609,-0.017521,0.986299,0.164036,0.280518
11.7799,76.89,-44.3667,-0.0487813,0.985848,0.16039,0.366775
9.25056,76.8436,-44.7309,-0.0423449,0.986009,0.161225,0.368193
9.40339,75.1526,-44.0198,-0.0403238,0.986011,0.161731,0.347701
9.31817,77.515,-43.6424,-0.0545532,0.985498,0.160676,0.377863
13.1186,72.9028,-30.4233,-0.190545,0.96882,0.158367,0.32667
12.3142,73.5644,-31.9201,-0.177676,0.971314,0.15805,0.335295
10.2951,77.819,-43.3263,-0.0639107,0.985065,0.159883,0.380947
9.46081,76.138,-42.0126,-0.0612477,0.985081,0.160822,0.362191
-27.2412,97.5477,4.97237,-0.34595,0.673636,-0.653095,0.831947
-25.1453,98.586,3.92271,-0.33826,0.674487,-0.656237,0.840159
13.5237,78.719,-30.5055,-0.234658,0.960982,0.146455,0.398063
12.5745,77.2801,-33.5435,-0.178789,0.97182,0.153625,0.380137
13.3649,79.1878,-31.7831,-0.216619,0.964894,0.148511,0.403253
16.3997,78.7391,-30.22,-0.243956,0.95902,0.144102,0.38914
13.6184,75.9647,-34.9611,-0.152676,0.975922,0.155774,0.3598
13.809,75.0632,-35.2265,-0.149522,0.976317,0.156357,0.347812
14.7767,75.4401,-34.1472,-0.168631,0.973468,0.154673,0.350946
14.3205,75.7956,-34.9264,-0.156945,0.975304,0.155401,0.356183
13.2821,73.2803,-38.2812,-0.104222,0.981689,0.159449,0.324477
15.2691,75.0681,-38.7646,-0.108046,0.98153,0.157878,0.342663
14.586,75.486,-38.4086,-0.113197,0.98101,0.157495,0.349391
14.0449,75.5394,-37.7813,-0.118801,0.980374,0.157332,0.351594
13.7373,75.0993,-37.8247,-0.120802,0.98009,0.157578,0.346741
14.5504,74.8371,-37.6296,-0.120676,0.980129,0.157429,0.342056
3.96916,85.4539,-41.3576,-0.116603,0.98054,0.157941,0.489263
3.92552,84.5584,-41.0571,-0.11635,0.980558,0.158015,0.478343
4.20765,84.335,-43.9502,-0.0831268,0.983649,0.159766,0.469777
4.2473,85.2886,-43.5251,-0.0922342,0.982931,0.159186,0.482771
4.50488,83.739,-43.1181,-0.0878779,0.983284,0.159468,0.463311
5.11417,84.4425,-42.5594,-0.097582,0.982492,0.158707,0.472562
5.15781,85.338,-42.8599,-0.100091,0.982264,0.158556,0.483482
4.83493,84.7356,-42.086,-0.106578,0.981637,0.15821,0.47749
-23.8482,100.69,1.20985,-0.330236,0.674353,-0.660448,0.875055
-22.753,100.238,1.11819,-0.342532,0.678106,-0.650265,0.866742
-26.9504,96.6719,6.24791,-0.353243,0.674869,-0.647897,0.812772
-29.6332,97.4485,8.93497,-0.310495,0.665543,-0.678709,0.80584
-29.32,96.5157,6.37795,-0.344632,0.671898,-0.655578,0.820724
-28.0039,95.6952,7.68759,-0.352211,0.673837,-0.649531,0.797676
-29.4009,97.4814,6.41245,-0.330057,0.669382,-0.665574,0.827736
-23.2032,103.937,0.772626,-0.276911,0.664439,-0.694148,0.905874
-22.2901,102.479,-1.56007,-0.323573,0.674737,-0.663348,0.907549
-22.712,103.596,-1.18263,-0.299579,0.669403,-0.679818,0.917345
-24.1954,100.757,-0.817575,-0.344395,0.676711,-0.650734,0.89354
-24.4224,101.255,-1.72257,-0.341924,0.676209,-0.652556,0.906486
-23.2711,100.84,-1.71822,-0.348915,0.678249,-0.646712,0.896927
-23.0442,100.343,-0.813223,-0.356876,0.680515,-0.639953,0.883981
-24.8603,102.335,-1.88393,-0.320413,0.67217,-0.667475,0.920353
-24.8222,103.029,-0.681799,-0.300995,0.668055,-0.680518,0.916382
-24.8314,102.524,0.330831,-0.304347,0.668657,-0.678432,0.903156
-24.0929,103.732,-0.300005,-0.288555,0.666037,-0.687845,0.916619
-23.7749,103.459,-1.6005,-0.298745,0.668484,-0.681088,0.923906
-24.1939,102.561,-2.34065,-0.318255,0.672294,-0.668382,0.923316
-23.2843,101.808,-2.16736,-0.335473,0.676139,-0.655968,0.910198
-27.7212,101.741,4.67832,-0.268612,0.65962,-0.701961,0.869177
-27.3118,106.487,11.0744,-0.138233,0.633324,-0.761441,0.840823
-26.7333,101.118,12.3524,-0.219081,0.651431,-0.726389,0.78896
-28.3833,96.2487,15.8351,-0.268237,0.66013,-0.701625,0.726187
-29.7954,97.4621,17.7329,-0.224591,0.651433,-0.724703,0.71802
2.17774,54.9799,12.3411,-0.453816,0.826178,0.333887,0.239107
-0.57666,55.7046,13.7049,-0.483955,0.804832,0.343559,0.270594
2.53895,54.4083,14.0496,-0.470008,0.814854,0.339271,0.237986
13.249,76.5031,-35.642,-0.148855,0.976523,0.155707,0.366934
10.7461,75.9982,-35.7483,-0.139341,0.977556,0.158015,0.365821
