-16.0567 27.4923 -21.7264 
-16.7968 22.9103 -23.1885 
-17.5369 18.3282 -24.6507 
-18.277 13.7462 -26.1129 
-19.0171 9.1641 -27.5751 
-19.7572 4.58205 -29.0372 
-20.4973 0 -30.4994 
-12.0887 58.9443 -9.17113 
-12.5519 54.4101 -10.5263 
-13.015 49.876 -11.8816 
-13.4782 45.3418 -13.2368 
-13.9414 40.8076 -14.592 
-14.4045 36.2734 -15.9472 
-14.8677 31.7392 -17.3024 
-15.3309 27.2051 -18.6576 
-15.7941 22.6709 -20.0129 
-16.2572 18.1367 -21.3681 
-16.7204 13.6025 -22.7233 
-17.1836 9.06836 -24.0785 
-17.6467 4.53418 -25.4337 
-18.1099 0 -26.7889 
-11.6909 59.283 -10.3094 
-12.4531 54.7228 -11.9312 
-13.2152 50.1625 -13.5529 
-13.9773 45.6023 -15.1746 
-14.7395 41.0421 -16.7963 
-15.5016 36.4818 -18.418 
-16.2637 31.9216 -20.0397 
-17.0259 27.3614 -21.6614 
-17.788 22.8011 -23.2831 
-18.5501 18.2409 -24.9048 
-19.3122 13.6807 -26.5266 
-20.0744 9.12046 -28.1483 
-20.8365 4.56023 -29.77 
-21.5986 0 -31.3917 
-9.37049 59.6331 -12.5277 
-10.1441 55.0459 -13.8194 
-10.9177 50.4587 -15.1111 
-11.6913 45.8716 -16.4028 
-12.4649 41.2844 -17.6945 
-13.2385 36.6973 -18.9863 
-14.0121 32.1101 -20.278 
-14.7857 27.5229 -21.5697 
-15.5592 22.9358 -22.8614 
-16.3328 18.3486 -24.1531 
-17.1064 13.7615 -25.4448 
-17.88 9.17432 -26.7365 
-18.6536 4.58716 -28.0282 
-19.4272 0 -29.32 
-10.8046 59.5994 -11.6413 
-11.6007 55.0148 -13.0541 
-12.3969 50.4303 -14.4669 
-13.193 45.8457 -15.8797 
-13.9892 41.2611 -17.2924 
-14.7853 36.6766 -18.7052 
-15.5815 32.092 -20.118 
-16.3776 27.5074 -21.5307 
-17.1738 22.9228 -22.9435 
-17.9699 18.3383 -24.3563 
-18.7661 13.7537 -25.769 
-19.5622 9.16914 -27.1818 
-20.3584 4.58457 -28.5946 
-21.1545 0 -30.0074 
-10.8448 59.6923 -11.9098 
-11.7006 55.1006 -13.3624 
-12.5565 50.5089 -14.8149 
-13.4123 45.9172 -16.2674 
-14.2681 41.3255 -17.72 
-15.124 36.7337 -19.1725 
-15.9798 32.142 -20.625 
-16.8356 27.5503 -22.0776 
-17.6915 22.9586 -23.5301 
-18.5473 18.3669 -24.9826 
-19.4032 13.7752 -26.4352 
-20.259 9.18343 -27.8877 
-21.1148 4.59172 -29.3402 
-21.9707 0 -30.7928 
-9.91347 59.8152 -12.801 
-10.7697 55.214 -14.1855 
-11.6259 50.6128 -15.57 
-12.4821 46.0117 -16.9544 
-13.3383 41.4105 -18.3389 
-14.1945 36.8093 -19.7234 
-15.0507 32.2082 -21.1079 
-15.9069 27.607 -22.4924 
-16.7631 23.0058 -23.8769 
-17.6193 18.4047 -25.2614 
-18.4755 13.8035 -26.6458 
-19.3317 9.20233 -28.0303 
-20.1879 4.60117 -29.4148 
-21.0441 0 -30.7993 
-6.87711 59.4257 -13.202 
-7.50908 54.8545 -14.3846 
-8.14105 50.2833 -15.5671 
-8.77302 45.7121 -16.7497 
-9.405 41.1409 -17.9322 
-10.037 36.5697 -19.1148 
-10.6689 31.9985 -20.2973 
-11.3009 27.4273 -21.4799 
-11.9329 22.856 -22.6624 
-12.5649 18.2848 -23.845 
-13.1968 13.7136 -25.0275 
-13.8288 9.14242 -26.2101 
-14.4608 4.57121 -27.3926 
-15.0927 0 -28.5752 
-7.98383 59.6125 -13.3857 
-8.69755 55.0269 -14.5897 
-9.41127 50.4414 -15.7936 
-10.125 45.8558 -16.9975 
-10.8387 41.2702 -18.2015 
-11.5524 36.6846 -19.4054 
-12.2662 32.099 -20.6094 
-12.9799 27.5135 -21.8133 
-13.6936 22.9279 -23.0173 
-14.4073 18.3423 -24.2212 
-15.1211 13.7567 -25.4252 
-15.8348 9.17116 -26.6291 
-16.5485 4.58558 -27.8331 
-17.2622 0 -29.037 
-6.41765 59.242 -12.7374 
-7.01004 54.6849 -13.7763 
-7.60242 50.1279 -14.8152 
-8.19481 45.5708 -15.854 
-8.78719 41.0137 -16.8929 
-9.37958 36.4566 -17.9318 
-9.97196 31.8995 -18.9707 
-10.5643 27.3425 -20.0095 
-11.1567 22.7854 -21.0484 
-11.7491 18.2283 -22.0873 
-12.3415 13.6712 -23.1262 
-12.9339 9.11416 -24.165 
-13.5263 4.55708 -25.2039 
-14.1187 0 -26.2428 
-0.443008 58.3219 -9.74217 
-0.540669 53.4618 -10.3275 
-0.638331 48.6016 -10.9128 
-0.735992 43.7414 -11.4981 
-0.833654 38.8813 -12.0834 
-0.931315 34.0211 -12.6686 
-1.02898 29.161 -13.2539 
-1.12664 24.3008 -13.8392 
-1.2243 19.4406 -14.4245 
-1.32196 14.5805 -15.0098 
-1.41962 9.72032 -15.5951 
-1.51728 4.86016 -16.1804 
-1.61495 0 -16.7657 
-1.97235 58.4811 -10.6336 
-2.15294 53.6076 -11.3369 
-2.33353 48.7342 -12.0401 
-2.51412 43.8608 -12.7433 
-2.69471 38.9874 -13.4465 
-2.8753 34.114 -14.1497 
-3.05589 29.2405 -14.853 
-3.23648 24.3671 -15.5562 
-3.41707 19.4937 -16.2594 
-3.59766 14.6203 -16.9626 
-3.77825 9.74684 -17.6658 
-3.95884 4.87342 -18.3691 
-4.13943 0 -19.0723 
-1.49255 58.4169 -10.3416 
-1.63595 53.5488 -10.9694 
-1.77935 48.6807 -11.5971 
-1.92276 43.8127 -12.2248 
-2.06616 38.9446 -12.8525 
-2.20956 34.0765 -13.4802 
-2.35296 29.2084 -14.108 
-2.49636 24.3404 -14.7357 
-2.63976 19.4723 -15.3634 
-2.78316 14.6042 -15.9911 
-2.92656 9.73614 -16.6188 
-3.06996 4.86807 -17.2465 
-3.21336 0 -17.8743 
-0.0274886 58.2836 -9.49575 
-0.0865878 53.4266 -9.99256 
-0.145687 48.5696 -10.4894 
-0.204786 43.7127 -10.9862 
-0.263885 38.8557 -11.483 
-0.322984 33.9988 -11.9798 
-0.382084 29.1418 -12.4766 
-0.441183 24.2848 -12.9734 
-0.500282 19.4279 -13.4702 
-0.559381 14.5709 -13.967 
-0.61848 9.71393 -14.4638 
-0.67758 4.85696 -14.9607 
-0.736679 0 -15.4575 
0.983067 58.2263 -8.96568 
0.999149 53.699 -9.42364 
1.01523 49.1716 -9.88159 
1.03131 44.6443 -10.3395 
1.04739 40.117 -10.7975 
-3.06018 58.6154 -11.2647 
-3.43561 53.7308 -12.0657 
-3.81104 48.8462 -12.8667 
-4.18648 43.9615 -13.6677 
-4.56191 39.0769 -14.4686 
-4.93734 34.1923 -15.2696 
-5.31278 29.3077 -16.0706 
-5.68821 24.4231 -16.8716 
-6.06364 19.5385 -17.6726 
-6.43908 14.6538 -18.4736 
-6.81451 9.76923 -19.2746 
-7.18994 4.88462 -20.0755 
-7.56538 0 -20.8765 
-4.85109 58.9648 -12.3516 
-5.35181 54.4291 -13.2292 
-5.85253 49.8933 -14.1068 
-6.35325 45.3576 -14.9844 
-6.85397 40.8218 -15.862 
-7.35468 36.286 -16.7396 
-7.8554 31.7503 -17.6172 
-8.35612 27.2145 -18.4948 
-8.85684 22.6788 -19.3724 
-9.35756 18.143 -20.25 
-9.85827 13.6073 -21.1276 
-10.359 9.07151 -22.0052 
-10.8597 4.53576 -22.8828 
-11.3604 0 -23.7604 
-4.08913 58.8253 -11.9102 
-4.51778 53.9231 -12.7955 
-4.94643 49.021 -13.6807 
-5.37507 44.1189 -14.5659 
-5.80372 39.2168 -15.4511 
-6.23237 34.3147 -16.3363 
-6.66102 29.4126 -17.2215 
-7.08966 24.5105 -18.1068 
-7.51831 19.6084 -18.992 
-7.94696 14.7063 -19.8772 
-8.3756 9.80421 -20.7624 
-8.80425 4.9021 -21.6476 
-9.2329 0 -22.5328 
-5.76571 59.1652 -12.7744 
-6.3522 54.614 -13.7071 
-6.9387 50.0628 -14.6397 
-7.5252 45.5117 -15.5724 
-8.11169 40.9605 -16.5051 
-8.69819 36.4093 -17.4378 
-9.28469 31.8582 -18.3704 
-9.87118 27.307 -19.3031 
-10.4577 22.7558 -20.2358 
-11.0442 18.2047 -21.1685 
-11.6307 13.6535 -22.1012 
-12.2172 9.10233 -23.0338 
-12.8037 4.55117 -23.9665 
-13.3902 0 -24.8992 
-6.28505 59.2939 -13.0604 
-6.96392 54.7328 -14.0714 
-7.6428 50.1717 -15.0823 
-8.32167 45.6107 -16.0933 
-9.00055 41.0496 -17.1042 
-9.67942 36.4885 -18.1151 
-10.3583 31.9275 -19.1261 
-11.0372 27.3664 -20.137 
-11.716 22.8053 -21.148 
-12.3949 18.2443 -22.1589 
-13.0738 13.6832 -23.1699 
-13.7527 9.12213 -24.1808 
-14.4315 4.56107 -25.1918 
-15.1104 0 -26.2027 
-3.45504 58.6881 -11.519 
-3.93591 53.7974 -12.3101 
-4.41678 48.9067 -13.1012 
-4.89765 44.016 -13.8923 
-5.37852 39.1254 -14.6834 
-5.85939 34.2347 -15.4745 
-6.34026 29.344 -16.2655 
-6.82113 24.4534 -17.0566 
-7.302 19.5627 -17.8477 
-7.78287 14.672 -18.6388 
-8.26375 9.78134 -19.4299 
-8.74462 4.89067 -20.221 
-9.22549 0 -21.0121 
2.21483 58.188 -8.30357 
2.31552 53.8628 -8.72973 
2.41622 49.5376 -9.1559 
2.51692 45.2123 -9.58207 
2.61761 40.8871 -10.0082 
2.42876 58.1825 -8.19437 
2.5994 54.0506 -8.55677 
2.77004 49.9188 -8.91916 
2.94068 45.7869 -9.28156 
3.11132 41.655 -9.64395 
-8.79816 59.7018 -13.1814 
-9.65247 55.1094 -14.4206 
-10.5068 50.5169 -15.6598 
-11.3611 45.9245 -16.899 
-12.2154 41.332 -18.1382 
-13.0697 36.7396 -19.3773 
-13.924 32.1471 -20.6165 
-14.7784 27.5547 -21.8557 
-15.6327 22.9622 -23.0949 
-16.487 18.3698 -24.3341 
-17.3413 13.7773 -25.5733 
-18.1956 9.1849 -26.8124 
-19.0499 4.59245 -28.0516 
-19.9042 0 -29.2908 
-9.45112 59.8089 -13.1006 
-10.3689 55.2082 -14.4207 
-11.2867 50.6075 -15.7407 
-12.2045 46.0069 -17.0608 
-13.1223 41.4062 -18.3808 
-14.0401 36.8055 -19.7009 
-14.9579 32.2048 -21.0209 
-15.8757 27.6041 -22.341 
-16.7934 23.0034 -23.661 
-17.7112 18.4027 -24.9811 
-18.629 13.8021 -26.3011 
-19.5468 9.20137 -27.6212 
-20.4646 4.60069 -28.9413 
-21.3824 0 -30.2613 
-13.1823 58.0249 -5.91481 
-13.494 54.1774 -7.12118 
-13.8056 50.3299 -8.32755 
-12.8102 58.3078 -7.01382 
-13.1758 54.0158 -8.22907 
-13.5413 49.7237 -9.44431 
2.59223 58.1859 -8.10965 
2.81086 54.0547 -8.45111 
3.02949 49.9235 -8.79257 
3.24813 45.7922 -9.13403 
3.46676 41.661 -9.4755 
-12.686 58.398 -7.37774 
-12.9466 54.799 -8.46084 
-13.2072 51.1999 -9.54395 
-13.4678 47.6009 -10.6271 
-14.3102 56.6962 -1.0375 
-14.0803 53.7346 -1.79441 
-13.8504 50.773 -2.55132 
-14.165 56.4545 -0.0569308 
-13.9256 53.6076 -0.725462 
-13.6862 50.7606 -1.39399 
-14.2208 56.884 -1.75811 
-14.0692 53.8316 -2.52493 
-13.9177 50.7793 -3.29176 
-13.9415 57.3489 -3.44587 
-13.8833 54.1262 -4.25411 
-13.8252 50.9034 -5.06236 
-14.0438 56.3038 0.70624 
-13.7608 53.5269 0.1066 
-13.4778 50.75 -0.493041 
-14.2424 57.1549 0.482867 
-14.0684 53.9135 -0.349339 
-13.8944 50.6721 -1.18154 
-12.8207 59.537 -8.08433 
-13.2467 54.9573 -9.48522 
-13.6727 50.3775 -10.8861 
-14.0987 45.7977 -12.287 
-14.5247 41.2179 -13.6879 
-14.9507 36.6382 -15.0888 
-15.3767 32.0584 -16.4897 
-15.8027 27.4786 -17.8906 
-16.2287 22.8989 -19.2915 
-16.6547 18.3191 -20.6924 
-17.0808 13.7393 -22.0933 
-17.5068 9.15954 -23.4942 
-17.9328 4.57977 -24.8951 
-18.3588 0 -26.296 
3.88082 58.7935 -7.48312 
4.15775 53.859 -7.786 
4.43468 48.9245 -8.08888 
4.71161 43.9901 -8.39176 
4.07967 58.804 -7.34655 
4.38047 54.1326 -7.57902 
4.68128 49.4612 -7.81149 
4.98209 44.7898 -8.04396 
5.32601 58.7988 -6.28405 
5.53548 55.4514 -6.38181 
5.74496 52.104 -6.47957 
5.95443 48.7566 -6.57734 
5.83271 58.8376 -5.64513 
6.07673 55.8124 -5.67959 
-12.1196 60.1787 -10.2309 
-12.7421 55.5496 -11.8217 
-13.3646 50.9205 -13.4126 
-13.9871 46.2913 -15.0035 
-14.6096 41.6622 -16.5943 
-15.232 37.0331 -18.1852 
-15.8545 32.4039 -19.776 
-16.477 27.7748 -21.3669 
-17.0995 23.1457 -22.9577 
-17.722 18.5165 -24.5486 
-18.3445 13.8874 -26.1394 
-18.9669 9.25826 -27.7303 
-19.5894 4.62913 -29.3211 
-20.2119 -7.10543e-15 -30.912 
-12.012 60.194 -10.3211 
-12.7061 55.5637 -11.922 
-13.4002 50.9334 -13.5228 
-14.0944 46.303 -15.1237 
-14.7885 41.6727 -16.7245 
-15.4827 37.0424 -18.3253 
-16.1768 32.4121 -19.9262 
-16.871 27.7818 -21.527 
-17.5651 23.1515 -23.1279 
-18.2592 18.5212 -24.7287 
-18.9534 13.8909 -26.3296 
-19.6475 9.26061 -27.9304 
-20.3417 4.6303 -29.5312 
-21.0358 -7.10543e-15 -31.1321 
-12.0782 60.2204 -10.3615 
-12.8388 55.5881 -12.0711 
-13.5994 50.9557 -13.7808 
-14.3599 46.3234 -15.4904 
-15.1205 41.691 -17.2001 
-15.8811 37.0587 -18.9097 
-16.6417 32.4264 -20.6194 
-17.4022 27.794 -22.329 
-18.1628 23.1617 -24.0387 
-18.9234 18.5294 -25.7483 
-19.684 13.897 -27.458 
-20.4445 9.26468 -29.1676 
-21.2051 4.63234 -30.8773 
-21.9657 -7.10543e-15 -32.5869 
-11.9671 60.1528 -10.206 
-12.6577 55.5257 -11.7342 
-13.3482 50.8985 -13.2623 
-14.0388 46.2714 -14.7905 
-14.7294 41.6442 -16.3186 
-15.42 37.0171 -17.8467 
-16.1105 32.39 -19.3749 
-16.8011 27.7628 -20.903 
-17.4917 23.1357 -22.4311 
-18.1823 18.5086 -23.9593 
-18.8728 13.8814 -25.4874 
-19.5634 9.25428 -27.0156 
-20.254 4.62714 -28.5437 
-20.9446 0 -30.0718 
-11.8493 60.1671 -10.3163 
-12.6178 55.5389 -11.9066 
-13.3864 50.9106 -13.4969 
-14.1549 46.2824 -15.0872 
-14.9235 41.6541 -16.6775 
-15.692 37.0259 -18.2678 
-16.4606 32.3977 -19.8581 
-17.2292 27.7694 -21.4483 
-17.9977 23.1412 -23.0386 
-18.7663 18.513 -24.6289 
-19.5348 13.8847 -26.2192 
-20.3034 9.25648 -27.8095 
-21.0719 4.62824 -29.3998 
-21.8405 0 -30.9901 
-11.9814 60.2792 -10.5887 
-12.741 55.6424 -12.1293 
-13.5006 51.0055 -13.67 
-14.2602 46.3686 -15.2107 
-15.0199 41.7318 -16.7514 
-15.7795 37.0949 -18.292 
-16.5391 32.458 -19.8327 
-17.2988 27.8212 -21.3734 
-18.0584 23.1843 -22.9141 
-18.818 18.5475 -24.4547 
-19.5776 13.9106 -25.9954 
-20.3373 9.27373 -27.5361 
-21.0969 4.63686 -29.0768 
-21.8565 0 -30.6174 
-11.44 60.5876 -11.7708 
-12.2319 55.927 -13.28 
-13.0238 51.2665 -14.7893 
-13.8157 46.6059 -16.2985 
-14.6076 41.9453 -17.8077 
-15.3995 37.2847 -19.317 
-16.1913 32.6241 -20.8262 
-16.9832 27.9635 -22.3354 
-17.7751 23.3029 -23.8446 
-18.567 18.6423 -25.3539 
-19.3589 13.9818 -26.8631 
-20.1508 9.32117 -28.3723 
-20.9427 4.66059 -29.8815 
-21.7346 -7.10543e-15 -31.3908 
-10.3958 60.7267 -12.8218 
-11.1891 56.3891 -14.3004 
-11.9824 52.0515 -15.779 
-12.7757 47.7139 -17.2575 
-13.569 43.3762 -18.7361 
-14.3623 39.0386 -20.2147 
-15.1555 34.701 -21.6932 
-15.9488 30.3634 -23.1718 
-16.7421 26.0257 -24.6503 
-17.5354 21.6881 -26.1289 
-18.3287 17.3505 -27.6075 
-19.122 13.0129 -29.086 
-19.9153 8.67525 -30.5646 
-20.7086 4.33762 -32.0432 
-21.5018 0 -33.5217 
-10.5195 60.8183 -13.0151 
-11.3759 56.4741 -14.4641 
-12.2323 52.13 -15.9131 
-13.0887 47.7858 -17.3621 
-13.9451 43.4416 -18.8111 
-14.8015 39.0975 -20.2601 
-15.6579 34.7533 -21.7091 
-16.5143 30.4091 -23.1581 
-17.3707 26.065 -24.6071 
-18.2271 21.7208 -26.0561 
-19.0835 17.3767 -27.5051 
-19.9399 13.0325 -28.9541 
-20.7963 8.68833 -30.4031 
-21.6527 4.34416 -31.8522 
-22.5091 0 -33.3012 
-10.8182 60.7243 -12.5634 
-11.6943 56.0532 -14.0492 
-12.5704 51.3821 -15.535 
-13.4464 46.711 -17.0209 
-14.3225 42.0399 -18.5067 
-15.1985 37.3688 -19.9925 
-16.0746 32.6977 -21.4783 
-16.9506 28.0266 -22.9641 
-17.8267 23.3555 -24.45 
-18.7027 18.6844 -25.9358 
-19.5788 14.0133 -27.4216 
-20.4548 9.3422 -28.9074 
-21.3309 4.6711 -30.3933 
-22.207 0 -31.8791 
-12.5399 59.7781 -8.93872 
-13.0772 55.1798 -10.4968 
-13.6145 50.5815 -12.0549 
-14.1518 45.9832 -13.613 
-14.6891 41.3849 -15.1711 
-15.2264 36.7865 -16.7292 
-15.7637 32.1882 -18.2874 
-16.301 27.5899 -19.8455 
-16.8383 22.9916 -21.4036 
-17.3756 18.3933 -22.9617 
-17.9129 13.795 -24.5198 
-18.4501 9.19663 -26.0779 
-18.9874 4.59832 -27.636 
-19.5247 0 -29.1941 
-10.1616 60.6571 -12.7357 
-11.0518 55.9912 -14.1736 
-11.9419 51.3252 -15.6116 
-12.8321 46.6593 -17.0496 
-13.7223 41.9934 -18.4875 
-14.6124 37.3275 -19.9255 
-15.5026 32.6615 -21.3635 
-16.3927 27.9956 -22.8014 
-17.2829 23.3297 -24.2394 
-18.173 18.6637 -25.6774 
-19.0632 13.9978 -27.1153 
-19.9533 9.33186 -28.5533 
-20.8435 4.66593 -29.9913 
-21.7336 0 -31.4292 
-10.3165 60.563 -12.3365 
-11.204 55.9043 -13.7945 
-12.0916 51.2456 -15.2524 
-12.9791 46.5869 -16.7103 
-13.8666 41.9282 -18.1682 
-14.7542 37.2695 -19.6262 
-15.6417 32.6108 -21.0841 
-16.5292 27.9521 -22.542 
-17.4168 23.2935 -23.9999 
-18.3043 18.6348 -25.4578 
-19.1918 13.9761 -26.9158 
-20.0794 9.31738 -28.3737 
-20.9669 4.65869 -29.8316 
-21.8544 0 -31.2895 
-0.490511 59.0122 -9.96868 
-0.589329 54.0945 -10.5609 
-0.688146 49.1769 -11.1531 
-0.786964 44.2592 -11.7453 
-0.885781 39.3415 -12.3376 
-0.984599 34.4238 -12.9298 
-1.08342 29.5061 -13.522 
-1.18223 24.5884 -14.1142 
-1.28105 19.6707 -14.7065 
-1.37987 14.7531 -15.2987 
-1.47869 9.83537 -15.8909 
-1.5775 4.91769 -16.4831 
-1.67632 0 -17.0753 
-2.0643 59.2005 -10.9072 
-2.24711 54.2671 -11.619 
-2.42992 49.3337 -12.3309 
-2.61273 44.4004 -13.0428 
-2.79554 39.467 -13.7546 
-2.97835 34.5336 -14.4665 
-3.16117 29.6002 -15.1784 
-3.34398 24.6669 -15.8903 
-3.52679 19.7335 -16.6021 
-3.7096 14.8001 -17.314 
-3.89241 9.86675 -18.0259 
-4.07522 4.93337 -18.7377 
-4.25804 0 -19.4496 
-1.00549 59.0588 -10.2628 
-1.19464 54.1372 -10.9293 
-1.3838 49.2157 -11.5958 
-1.57295 44.2941 -12.2623 
-1.7621 39.3725 -12.9288 
-1.95125 34.451 -13.5954 
-2.1404 29.5294 -14.2619 
-2.32956 24.6078 -14.9284 
-2.51871 19.6863 -15.5949 
-2.70786 14.7647 -16.2614 
-2.89701 9.84314 -16.9279 
-3.08616 4.92157 -17.5944 
-3.27532 0 -18.2609 
0.696998 58.9026 -9.26442 
0.646147 54.7236 -9.69189 
0.595296 50.5445 -10.1194 
0.544445 46.3654 -10.5468 
0.493594 42.1863 -10.9743 
0.442744 38.0072 -11.4018 
0.963256 58.8875 -9.12476 
0.952244 54.8465 -9.5359 
0.941231 50.8055 -9.94704 
0.930219 46.7644 -10.3582 
0.919207 42.7234 -10.7693 
0.908194 38.6823 -11.1805 
-4.68629 59.7254 -12.5809 
-5.31259 55.1312 -13.4828 
-5.93889 50.5369 -14.3846 
-6.56519 45.9426 -15.2864 
-7.19149 41.3484 -16.1882 
-7.81779 36.7541 -17.0901 
-8.44409 32.1598 -17.9919 
-9.07038 27.5656 -18.8937 
-9.69668 22.9713 -19.7955 
-10.323 18.3771 -20.6973 
-10.9493 13.7828 -21.5992 
-11.5756 9.18853 -22.501 
-12.2019 4.59426 -23.4028 
-12.8282 0 -24.3046 
-4.31875 59.6329 -12.32 
-4.83998 55.0458 -13.1501 
-5.36121 50.4586 -13.9802 
-5.88243 45.8715 -14.8103 
-6.40366 41.2843 -15.6404 
-6.92489 36.6972 -16.4705 
-7.44611 32.11 -17.3005 
-7.96734 27.5229 -18.1306 
-8.48857 22.9357 -18.9607 
-9.0098 18.3486 -19.7908 
-9.53102 13.7614 -20.6209 
-10.0522 9.1743 -21.451 
-10.5735 4.58715 -22.2811 
-11.0947 0 -23.1112 
-4.77739 59.6993 -12.3796 
-5.41027 55.1071 -13.2605 
-6.04315 50.5148 -14.1415 
-6.67602 45.9226 -15.0224 
-7.3089 41.3303 -15.9033 
-7.94178 36.7381 -16.7842 
-8.57466 32.1458 -17.6651 
-9.20753 27.5535 -18.546 
-9.84041 22.9613 -19.4269 
-10.4733 18.369 -20.3078 
-11.1062 13.7768 -21.1888 
-11.739 9.18451 -22.0697 
-12.3719 4.59226 -22.9506 
-13.0048 0 -23.8315 
-2.2779 59.2269 -11.0311 
-2.62807 54.6709 -11.7782 
-2.97824 50.115 -12.5252 
-3.32841 45.5591 -13.2723 
-3.67858 41.0032 -14.0194 
-4.02875 36.4473 -14.7665 
-4.37892 31.8914 -15.5136 
-4.72909 27.3355 -16.2607 
-5.07926 22.7796 -17.0078 
-5.42943 18.2236 -17.7548 
-5.7796 13.6677 -18.5019 
-6.12976 9.11182 -19.249 
-6.47993 4.55591 -19.9961 
-6.8301 0 -20.7432 
-6.12848 60.103 -13.4078 
-6.81662 55.4797 -14.4326 
-7.50476 50.8564 -15.4573 
-8.1929 46.2331 -16.4821 
-8.88104 41.6098 -17.5068 
-9.56918 36.9865 -18.5316 
-10.2573 32.3632 -19.5563 
-10.9455 27.7399 -20.5811 
-11.6336 23.1166 -21.6058 
-12.3217 18.4932 -22.6305 
-13.0099 13.8699 -23.6553 
-13.698 9.24662 -24.68 
-14.3862 4.62331 -25.7048 
-15.0743 0 -26.7295 
-5.29537 59.8966 -12.949 
-5.94337 55.2891 -13.9363 
-6.59138 50.6817 -14.9235 
-7.23938 46.0743 -15.9107 
-7.88739 41.4669 -16.8979 
-8.53539 36.8594 -17.8852 
-9.1834 32.252 -18.8724 
-9.8314 27.6446 -19.8596 
-10.4794 23.0371 -20.8469 
-11.1274 18.4297 -21.8341 
-11.7754 13.8223 -22.8213 
-12.4234 9.21486 -23.8086 
-13.0714 4.60743 -24.7958 
-13.7194 0 -25.783 
-3.37479 59.4287 -11.7376 
-3.83965 54.8573 -12.4971 
-4.30451 50.2858 -13.2566 
-4.76937 45.7144 -14.0162 
-5.23423 41.1429 -14.7757 
-5.69909 36.5715 -15.5352 
-6.16395 32.0001 -16.2947 
-6.62881 27.4286 -17.0542 
-7.09367 22.8572 -17.8138 
-7.55853 18.2858 -18.5733 
-8.02339 13.7143 -19.3328 
-8.48825 9.14288 -20.0923 
-8.95311 4.57144 -20.8518 
-9.41797 0 -21.6114 
1.42449 58.8732 -8.87683 
1.47982 54.1824 -9.3379 
1.53515 49.4916 -9.79897 
1.59048 44.8008 -10.26 
1.64581 40.11 -10.7211 
-7.83442 60.5124 -13.8887 
-8.74459 55.8576 -15.0921 
-9.65476 51.2028 -16.2955 
-10.5649 46.548 -17.499 
-11.4751 41.8932 -18.7024 
-12.3853 37.2384 -19.9058 
-13.2955 32.5836 -21.1093 
-14.2056 27.9288 -22.3127 
-15.1158 23.274 -23.5161 
-16.026 18.6192 -24.7196 
-16.9361 13.9644 -25.923 
-17.8463 9.3096 -27.1264 
-18.7565 4.6548 -28.3299 
-19.6667 0 -29.5333 
-8.01116 60.4907 -13.6691 
-8.99613 55.8375 -14.9261 
-9.98109 51.1844 -16.1831 
-10.9661 46.5313 -17.4402 
-11.951 41.8782 -18.6972 
-12.936 37.225 -19.9543 
-13.9209 32.5719 -21.2113 
-14.9059 27.9188 -22.4683 
-15.8909 23.2656 -23.7254 
-16.8758 18.6125 -24.9824 
-17.8608 13.9594 -26.2395 
-18.8458 9.30626 -27.4965 
-19.8307 4.65313 -28.7535 
-20.8157 0 -30.0106 
-8.11616 60.4402 -13.4005 
-9.00603 55.7909 -14.6449 
-9.8959 51.1417 -15.8893 
-10.7858 46.4924 -17.1337 
-11.6756 41.8432 -18.3781 
-12.5655 37.1939 -19.6224 
-13.4554 32.5447 -20.8668 
-14.3453 27.8955 -22.1112 
-15.2351 23.2462 -23.3556 
-16.125 18.597 -24.6 
-17.0149 13.9477 -25.8444 
-17.9048 9.29848 -27.0887 
-18.7946 4.64924 -28.3331 
-19.6845 0 -29.5775 
-7.25895 60.3548 -13.6782 
-8.07524 55.7121 -14.782 
-8.89153 51.0694 -15.8858 
-9.70781 46.4268 -16.9895 
-10.5241 41.7841 -18.0933 
-11.3404 37.1414 -19.1971 
-12.1567 32.4987 -20.3008 
-12.973 27.8561 -21.4046 
-13.7893 23.2134 -22.5083 
-14.6055 18.5707 -23.6121 
-15.4218 13.928 -24.7159 
-16.2381 9.28535 -25.8196 
-17.0544 4.64268 -26.9234 
-17.8707 0 -28.0272 
-8.50103 60.6458 -13.8639 
-9.45286 55.9808 -15.1527 
-10.4047 51.3157 -16.4416 
-11.3565 46.6506 -17.7304 
-12.3083 41.9856 -19.0192 
-13.2602 37.3205 -20.3081 
-14.212 32.6554 -21.5969 
-15.1638 27.9904 -22.8857 
-16.1156 23.3253 -24.1746 
-17.0675 18.6603 -25.4634 
-18.0193 13.9952 -26.7522 
-18.9711 9.33013 -28.0411 
-19.9229 4.66506 -29.3299 
-20.8748 7.10543e-15 -30.6188 
-10.0094 60.7957 -13.3375 
-10.9676 56.1191 -14.6641 
-11.9257 51.4425 -15.9907 
-12.8839 46.7659 -17.3172 
-13.8421 42.0893 -18.6438 
-14.8002 37.4127 -19.9704 
-15.7584 32.7362 -21.297 
-16.7166 28.0596 -22.6235 
-17.6748 23.383 -23.9501 
-18.6329 18.7064 -25.2767 
-19.5911 14.0298 -26.6032 
-20.5493 9.35319 -27.9298 
-21.5074 4.67659 -29.2564 
-22.4656 7.10543e-15 -30.5829 
-9.36158 60.787 -13.7574 
-10.2944 56.111 -15.099 
-11.2272 51.4351 -16.4407 
-12.16 46.7592 -17.7823 
-13.0928 42.0833 -19.124 
-14.0256 37.4074 -20.4656 
-14.9584 32.7314 -21.8072 
-15.8912 28.0555 -23.1489 
-16.824 23.3796 -24.4905 
-17.7568 18.7037 -25.8321 
-18.6896 14.0278 -27.1738 
-19.6224 9.35184 -28.5154 
-20.5552 4.67592 -29.8571 
-21.488 -7.10543e-15 -31.1987 
-13.1737 58.9897 -6.115 
-13.5371 54.652 -7.37674 
-13.9005 50.3143 -8.63849 
-13.4256 58.9679 -5.97012 
-13.7062 54.6283 -7.30335 
-13.9867 50.2886 -8.63657 
-13.9754 58.4846 -4.49297 
-14.0947 54.6792 -5.71329 
-14.214 50.8737 -6.93361 
-13.5194 58.9804 -5.99568 
-13.7278 54.286 -7.52174 
-13.9362 49.5917 -9.0478 
-13.8453 58.4343 -4.34187 
-13.8869 54.6886 -5.37277 
-13.9285 50.9429 -6.40367 
-14.013 58.4266 -4.31022 
-14.0376 54.663 -5.359 
-14.0623 50.8995 -6.40778 
-14.4089 58.0593 -2.88253 
-14.4033 54.3824 -3.81422 
-14.3977 50.7055 -4.74591 
-14.2329 58.0492 -2.84501 
-14.2283 54.4019 -3.75999 
-14.2237 50.7545 -4.67498 
-14.4105 58.0034 -2.67766 
-14.345 54.3722 -3.70945 
-14.2795 50.7409 -4.74124 
-14.5076 57.5794 -1.22035 
-14.4371 54.1046 -2.20706 
-14.3667 50.6297 -3.19376 
-14.4652 57.5286 -1.03459 
-14.3239 54.1008 -1.91221 
-14.1826 50.673 -2.78982 
3.4934 58.7992 -7.69947 
3.59388 54.8927 -7.99532 
3.69437 50.9863 -8.29117 
3.79485 47.0798 -8.58702 
3.89533 43.1734 -8.88288 
-13.4866 58.9838 -6.01169 
-13.7038 54.6467 -7.34169 
-13.921 50.3096 -8.67169 
-13.5068 58.9923 -6.0364 
-13.7944 54.6259 -7.3261 
-14.082 50.2595 -8.6158 
-13.4699 58.9888 -6.03453 
-13.8127 54.6118 -7.29123 
-14.1556 50.2349 -8.54793 
-13.0077 59.3589 -7.50283 
-13.3383 54.7929 -8.87695 
-13.6689 50.2268 -10.2511 
-13.9996 45.6607 -11.6252 
-14.3302 41.0946 -12.9993 
-14.6608 36.5286 -14.3734 
-14.9915 31.9625 -15.7476 
-15.3221 27.3964 -17.1217 
-15.6527 22.8304 -18.4958 
-15.9834 18.2643 -19.8699 
-16.314 13.6982 -21.2441 
-16.6446 9.13214 -22.6182 
-16.9753 4.56607 -23.9923 
-17.3059 0 -25.3664 
-13.4693 59.0238 -6.15022 
-13.8536 54.2624 -7.5496 
-14.238 49.5011 -8.94898 
-14.3851 58.0236 0.308993 
-14.1879 54.3498 -0.639051 
-13.9907 50.6759 -1.5871 
3.86148 59.4037 -7.62705 
3.92666 55.5487 -7.83439 
3.99185 51.6938 -8.04174 
4.05703 47.8388 -8.24908 
4.12222 43.9838 -8.45643 
4.1745 59.406 -7.35685 
4.37327 54.5298 -7.61261 
4.57205 49.6535 -7.86836 
4.77082 44.7773 -8.12411 
-13.3236 60.2987 -7.62116 
-13.7841 55.6604 -9.16197 
-14.2445 51.022 -10.7028 
-14.7049 46.3836 -12.2436 
-15.1654 41.7453 -13.7844 
-15.6258 37.1069 -15.3252 
-16.0862 32.4685 -16.866 
-16.5467 27.8302 -18.4068 
-17.0071 23.1918 -19.9476 
-17.4675 18.5535 -21.4885 
-17.928 13.9151 -23.0293 
-18.3884 9.27673 -24.5701 
-18.8488 4.63836 -26.1109 
-19.3093 0 -27.6517 
-13.4883 60.1342 -7.09708 
-13.8759 55.5085 -8.55893 
-14.2634 50.8828 -10.0208 
-14.6509 46.2571 -11.4826 
-15.0385 41.6314 -12.9445 
-15.426 37.0057 -14.4063 
-15.8135 32.38 -15.8682 
-16.2011 27.7542 -17.33 
-16.5886 23.1285 -18.7919 
-16.9761 18.5028 -20.2537 
-17.3636 13.8771 -21.7156 
-17.7512 9.25142 -23.1774 
-18.1387 4.62571 -24.6393 
-18.5262 0 -26.1011 
-12.8057 60.7572 -9.21056 
-13.4342 56.0835 -10.8167 
-14.0626 51.4099 -12.4228 
-14.6911 46.7363 -14.029 
-15.3196 42.0627 -15.6351 
-15.9481 37.389 -17.2413 
-16.5765 32.7154 -18.8474 
-17.205 28.0418 -20.4536 
-17.8335 23.3681 -22.0597 
-18.4619 18.6945 -23.6659 
-19.0904 14.0209 -25.272 
-19.7189 9.34726 -26.8782 
-20.3473 4.67363 -28.4843 
-20.9758 7.10543e-15 -30.0904 
-12.3934 61.1725 -10.5112 
-13.1146 56.803 -12.0812 
-13.8359 52.4335 -13.6512 
-14.5571 48.0641 -15.2213 
-15.2784 43.6946 -16.7913 
-15.9997 39.3252 -18.3613 
-16.7209 34.9557 -19.9313 
-17.4422 30.5862 -21.5013 
-18.1634 26.2168 -23.0713 
-18.8847 21.8473 -24.6413 
-19.606 17.4778 -26.2114 
-20.3272 13.1084 -27.7814 
-21.0485 8.73892 -29.3514 
-21.7697 4.36946 -30.9214 
-22.491 0 -32.4914 
-12.0283 61.3942 -11.3675 
-12.8472 57.0089 -12.8032 
-13.6661 52.6236 -14.2389 
-14.485 48.2383 -15.6746 
-15.3038 43.853 -17.1103 
-16.1227 39.4677 -18.546 
-16.9416 35.0824 -19.9817 
-17.7605 30.6971 -21.4174 
-18.5793 26.3118 -22.8531 
-19.3982 21.9265 -24.2888 
-20.2171 17.5412 -25.7245 
-21.036 13.1559 -27.1602 
-21.8549 8.77059 -28.5959 
-22.6737 4.3853 -30.0316 
-23.4926 0 -31.4673 
-11.5741 61.3525 -11.5007 
-12.3644 56.9701 -12.8729 
-13.1548 52.5878 -14.245 
-13.9451 48.2055 -15.6172 
-14.7355 43.8232 -16.9894 
-15.5258 39.4409 -18.3615 
-16.3161 35.0586 -19.7337 
-17.1065 30.6762 -21.1058 
-17.8968 26.2939 -22.478 
-18.6872 21.9116 -23.8502 
-19.4775 17.5293 -25.2223 
-20.2678 13.147 -26.5945 
-21.0582 8.76464 -27.9667 
-21.8485 4.38232 -29.3388 
-22.6389 -7.10543e-15 -30.711 
-11.4425 61.4293 -11.8179 
-12.2942 57.0415 -13.2549 
-13.1459 52.6537 -14.6918 
-13.9976 48.2659 -16.1287 
-14.8493 43.8781 -17.5656 
-15.7011 39.4902 -19.0026 
-16.5528 35.1024 -20.4395 
-17.4045 30.7146 -21.8764 
-18.2562 26.3268 -23.3134 
-19.108 21.939 -24.7503 
-19.9597 17.5512 -26.1872 
-20.8114 13.1634 -27.6242 
-21.6631 8.77561 -29.0611 
-22.5148 4.38781 -30.498 
-23.3666 0 -31.935 
-10.917 61.8598 -13.3857 
-11.8201 57.4413 -14.8083 
-12.7232 53.0227 -16.2309 
-13.6262 48.6041 -17.6535 
-14.5293 44.1856 -19.0761 
-15.4324 39.767 -20.4986 
-16.3355 35.3485 -21.9212 
-17.2386 30.9299 -23.3438 
-18.1416 26.5114 -24.7664 
-19.0447 22.0928 -26.189 
-19.9478 17.6742 -27.6115 
-20.8509 13.2557 -29.0341 
-21.7539 8.83712 -30.4567 
-22.657 4.41856 -31.8793 
-23.5601 7.10543e-15 -33.3019 
-11.1163 61.7971 -13.0844 
-12.0349 57.3831 -14.6031 
-12.9536 52.969 -16.1218 
-13.8722 48.5549 -17.6405 
-14.7908 44.1408 -19.1592 
-15.7095 39.7267 -20.6779 
-16.6281 35.3127 -22.1966 
-17.5467 30.8986 -23.7154 
-18.4654 26.4845 -25.2341 
-19.384 22.0704 -26.7528 
-20.3026 17.6563 -28.2715 
-21.2213 13.2422 -29.7902 
-22.1399 8.82816 -31.3089 
-23.0585 4.41408 -32.8276 
-23.9772 0 -34.3463 
-11.8066 61.555 -11.954 
-12.7493 57.1582 -13.4946 
-13.6919 52.7615 -15.0352 
-14.6345 48.3647 -16.5758 
-15.5772 43.9679 -18.1164 
-16.5198 39.5711 -19.6571 
-17.4624 35.1743 -21.1977 
-18.4051 30.7775 -22.7383 
-19.3477 26.3807 -24.2789 
-20.2903 21.9839 -25.8195 
-21.233 17.5872 -27.3601 
-22.1756 13.1904 -28.9007 
-23.1182 8.79358 -30.4414 
-24.0609 4.39679 -31.982 
-25.0035 0 -33.5226 
-12.8613 60.7042 -9.0397 
-13.415 56.0346 -10.6032 
-13.9687 51.3651 -12.1667 
-14.5224 46.6955 -13.7302 
-15.0761 42.026 -15.2937 
-15.6298 37.3564 -16.8572 
-16.1835 32.6869 -18.4207 
-16.7372 28.0173 -19.9842 
-17.2909 23.3478 -21.5477 
-17.8446 18.6782 -23.1112 
-18.3983 14.0087 -24.6747 
-18.952 9.33911 -26.2382 
-19.5057 4.66955 -27.8017 
-20.0594 0 -29.3652 
-10.6613 61.8485 -13.5474 
-11.7122 57.4308 -14.8932 
-12.7631 53.013 -16.239 
-13.8141 48.5953 -17.5849 
-14.865 44.1775 -18.9307 
-15.9159 39.7598 -20.2765 
-16.9668 35.342 -21.6224 
-18.0177 30.9243 -22.9682 
-19.0686 26.5065 -24.314 
-20.1195 22.0888 -25.6599 
-21.1704 17.671 -27.0057 
-22.2214 13.2533 -28.3515 
-23.2723 8.8355 -29.6974 
-24.3232 4.41775 -31.0432 
-25.3741 7.10543e-15 -32.389 
-9.1545 61.5818 -13.8691 
-10.197 57.1831 -15.1802 
-11.2396 52.7844 -16.4912 
-12.2821 48.3857 -17.8023 
-13.3247 43.987 -19.1133 
-14.3672 39.5883 -20.4244 
-15.4098 35.1896 -21.7354 
-16.4523 30.7909 -23.0465 
-17.4949 26.3922 -24.3575 
-18.5374 21.9935 -25.6686 
-19.58 17.5948 -26.9796 
-20.6225 13.1961 -28.2907 
-21.6651 8.7974 -29.6017 
-22.7076 4.3987 -30.9128 
-23.7502 0 -32.2238 
-9.68828 61.8861 -14.3371 
-10.8927 57.4656 -15.8376 
-12.0971 53.0452 -17.338 
-13.3015 48.6248 -18.8385 
-14.5059 44.2043 -20.339 
-15.7104 39.7839 -21.8395 
-16.9148 35.3635 -23.3399 
-18.1192 30.943 -24.8404 
-19.3236 26.5226 -26.3409 
-20.528 22.1022 -27.8414 
-21.7324 17.6817 -29.3418 
-22.9368 13.2613 -30.8423 
-24.1413 8.84087 -32.3428 
-25.3457 4.42043 -33.8433 
-26.5501 7.10543e-15 -35.3437 
-6.07614 60.8708 -13.4966 
-7.05655 56.1885 -14.559 
-8.03695 51.5061 -15.6214 
-9.01736 46.8237 -16.6838 
-9.99777 42.1413 -17.7462 
-10.9782 37.459 -18.8086 
-11.9586 32.7766 -19.871 
-12.939 28.0942 -20.9335 
-13.9194 23.4119 -21.9959 
-14.8998 18.7295 -23.0583 
-15.8802 14.0471 -24.1207 
-16.8606 9.36474 -25.1831 
-17.841 4.68237 -26.2455 
-18.8214 0 -27.3079 
-6.88773 61.2174 -14.2248 
-7.837 56.5084 -15.3493 
-8.78627 51.7994 -16.4738 
-9.73555 47.0903 -17.5983 
-10.6848 42.3813 -18.7228 
-11.6341 37.6723 -19.8472 
-12.5834 32.9632 -20.9717 
-13.5326 28.2542 -22.0962 
-14.4819 23.5452 -23.2207 
-15.4312 18.8361 -24.3452 
-16.3805 14.1271 -25.4697 
-17.3297 9.41807 -26.5942 
-18.279 4.70903 -27.7187 
-19.2283 7.10543e-15 -28.8432 
-5.93708 60.894 -13.7519 
-6.89263 56.2099 -14.7503 
-7.84819 51.5257 -15.7488 
-8.80374 46.8416 -16.7473 
-9.75929 42.1574 -17.7457 
-10.7148 37.4732 -18.7442 
-11.6704 32.7891 -19.7426 
-12.626 28.1049 -20.7411 
-13.5815 23.4208 -21.7396 
-14.5371 18.7366 -22.738 
-15.4926 14.0525 -23.7365 
-16.4482 9.36831 -24.7349 
-17.4037 4.68416 -25.7334 
-18.3593 0 -26.7319 
-5.44521 60.7382 -13.395 
-6.18323 56.066 -14.4098 
-6.92125 51.3938 -15.4246 
-7.65926 46.7217 -16.4394 
-8.39728 42.0495 -17.4542 
-9.1353 37.3773 -18.469 
-9.87331 32.7052 -19.4838 
-10.6113 28.033 -20.4986 
-11.3493 23.3608 -21.5134 
-12.0874 18.6887 -22.5282 
-12.8254 14.0165 -23.543 
-13.5634 9.34434 -24.5578 
-14.3014 4.67217 -25.5726 
-15.0394 0 -26.5874 
0.971655 59.5487 -9.30906 
0.853998 54.8425 -9.8282 
0.73634 50.1363 -10.3473 
0.618682 45.4301 -10.8665 
0.501025 40.7239 -11.3856 
0.383367 36.0177 -11.9048 
-0.504957 59.6984 -10.1763 
-0.664821 55.1062 -10.7084 
-0.824686 50.514 -11.2406 
-0.98455 45.9218 -11.7728 
-1.14441 41.3296 -12.3049 
-1.30428 36.7375 -12.8371 
-1.46414 32.1453 -13.3693 
-1.62401 27.5531 -13.9014 
-1.78387 22.9609 -14.4336 
-1.94374 18.3687 -14.9658 
-2.1036 13.7765 -15.498 
-2.26347 9.18437 -16.0301 
-2.42333 4.59218 -16.5623 
-2.5832 0 -17.0945 
-0.529401 59.6979 -10.164 
-0.769081 55.1057 -10.6868 
-1.00876 50.5136 -11.2097 
-1.24844 45.9214 -11.7325 
-1.48812 41.3293 -12.2553 
-1.7278 36.7372 -12.7781 
-1.96748 32.145 -13.3009 
-2.20716 27.5529 -13.8237 
-2.44684 22.9607 -14.3465 
-2.68652 18.3686 -14.8693 
-2.9262 13.7764 -15.3921 
-3.16588 9.18429 -15.9149 
-3.40556 4.59214 -16.4377 
-3.64524 0 -16.9605 
-0.566347 59.7002 -10.1627 
-0.839615 55.1079 -10.7274 
-1.11288 50.5156 -11.2921 
-1.38615 45.9233 -11.8567 
-1.65942 41.3309 -12.4214 
-1.93269 36.7386 -12.9861 
-2.20596 32.1463 -13.5507 
-2.47922 27.554 -14.1154 
-2.75249 22.9616 -14.6801 
-3.02576 18.3693 -15.2447 
-3.29903 13.777 -15.8094 
-3.5723 9.18465 -16.3741 
-3.84556 4.59233 -16.9387 
-4.11883 0 -17.5034 
-4.56463 60.4907 -12.8628 
-5.19895 55.8376 -13.7762 
-5.83328 51.1845 -14.6895 
-6.4676 46.5313 -15.6029 
-7.10193 41.8782 -16.5163 
-7.73625 37.2251 -17.4297 
-8.37057 32.5719 -18.3431 
-9.0049 27.9188 -19.2564 
-9.63922 23.2657 -20.1698 
-10.2735 18.6125 -21.0832 
-10.9079 13.9594 -21.9966 
-11.5422 9.30627 -22.9099 
-12.1765 4.65313 -23.8233 
-12.8108 0 -24.7367 
-3.37194 60.1907 -12.016 
-4.00408 55.5606 -12.8399 
-4.63622 50.9306 -13.6639 
-5.26836 46.3005 -14.4878 
-5.9005 41.6705 -15.3118 
-6.53265 37.0404 -16.1357 
-7.16479 32.4104 -16.9597 
-7.79693 27.7803 -17.7836 
-8.42907 23.1503 -18.6076 
-9.06121 18.5202 -19.4316 
-9.69336 13.8902 -20.2555 
-10.3255 9.2601 -21.0795 
-10.9576 4.63005 -21.9034 
-11.5898 0 -22.7274 
-3.33697 60.1717 -11.9363 
-3.98699 55.5432 -12.7828 
-4.637 50.9146 -13.6294 
-5.28702 46.286 -14.4759 
-5.93703 41.6574 -15.3225 
-6.58705 37.0288 -16.169 
-7.23707 32.4002 -17.0155 
-7.88708 27.7716 -17.8621 
-8.5371 23.143 -18.7086 
-9.18712 18.5144 -19.5551 
-9.83713 13.8858 -20.4017 
-10.4871 9.25719 -21.2482 
-11.1372 4.6286 -22.0948 
-11.7872 0 -22.9413 
-3.29035 60.1668 -11.9559 
-4.01748 55.5386 -12.6741 
-4.74462 50.9104 -13.3923 
-5.47175 46.2822 -14.1105 
-6.19889 41.654 -14.8287 
-6.92603 37.0257 -15.5469 
-7.65316 32.3975 -16.2651 
-8.3803 27.7693 -16.9833 
-9.10743 23.1411 -17.7015 
-9.83457 18.5129 -18.4197 
-10.5617 13.8847 -19.1379 
-11.2888 9.25644 -19.8561 
-12.016 4.62822 -20.5743 
-12.7431 0 -21.2925 
-0.532201 59.7011 -10.1932 
-0.818277 55.1087 -10.7045 
-1.10435 50.5163 -11.2158 
-1.39043 45.9239 -11.7271 
-1.6765 41.3315 -12.2384 
-1.96258 36.7391 -12.7496 
-2.24866 32.1467 -13.2609 
-2.53473 27.5543 -13.7722 
-2.82081 22.962 -14.2835 
-3.10688 18.3696 -14.7948 
-3.39296 13.7772 -15.3061 
-3.67903 9.18478 -15.8174 
-3.96511 4.59239 -16.3286 
-4.25119 0 -16.8399 
-0.563082 59.7062 -10.2131 
-0.855756 55.1135 -10.7795 
-1.14843 50.5207 -11.3459 
-1.44111 45.9279 -11.9123 
-1.73378 41.3351 -12.4787 
-2.02645 36.7423 -13.0451 
-2.31913 32.1495 -13.6115 
-2.6118 27.5567 -14.1779 
-2.90448 22.9639 -14.7443 
-3.19715 18.3712 -15.3108 
-3.48983 13.7784 -15.8772 
-3.7825 9.18558 -16.4436 
-4.07518 4.59279 -17.01 
-4.36785 0 -17.5764 
-1.96382 59.887 -11.0912 
-2.4217 55.2803 -11.6915 
-2.87959 50.6736 -12.2918 
-3.33747 46.067 -12.8921 
-3.79535 41.4603 -13.4925 
-4.25323 36.8536 -14.0928 
-4.71111 32.2469 -14.6931 
-5.16899 27.6402 -15.2934 
-5.62688 23.0335 -15.8937 
-6.08476 18.4268 -16.494 
-6.54264 13.8201 -17.0944 
-7.00052 9.21339 -17.6947 
-7.4584 4.6067 -18.295 
-7.91629 0 -18.8953 
-3.30616 60.1617 -11.9068 
-3.87571 55.5339 -12.6508 
-4.44527 50.9061 -13.3948 
-5.01482 46.2783 -14.1388 
-5.58438 41.6504 -14.8828 
-6.15393 37.0226 -15.6267 
-6.72349 32.3948 -16.3707 
-7.29304 27.767 -17.1147 
-7.8626 23.1391 -17.8587 
-8.43216 18.5113 -18.6027 
-9.00171 13.8835 -19.3467 
-9.57127 9.25565 -20.0907 
-10.1408 4.62783 -20.8346 
-10.7104 0 -21.5786 
-3.24731 60.1569 -11.925 
-3.8221 55.5295 -12.5621 
-4.3969 50.902 -13.1993 
-4.97169 46.2746 -13.8365 
-5.54649 41.6471 -14.4736 
-6.12128 37.0196 -15.1108 
-6.69608 32.3922 -15.748 
-7.27087 27.7647 -16.3851 
-7.84567 23.1373 -17.0223 
-8.42046 18.5098 -17.6595 
-8.99526 13.8824 -18.2966 
-9.57005 9.25491 -18.9338 
-10.1448 4.62746 -19.5709 
-10.7196 0 -20.2081 
-7.37276 61.3503 -14.4022 
-8.29553 56.631 -15.6223 
-9.21831 51.9118 -16.8424 
-10.1411 47.1925 -18.0625 
-11.0639 42.4733 -19.2825 
-11.9866 37.754 -20.5026 
-12.9094 33.0348 -21.7227 
-13.8322 28.3155 -22.9428 
-14.755 23.5963 -24.1629 
-15.6777 18.877 -25.383 
-16.6005 14.1578 -26.6031 
-17.5233 9.4385 -27.8232 
-18.4461 4.71925 -29.0433 
-19.3688 0 -30.2634 
-9.0394 61.7476 -14.495 
-10.177 57.3371 -15.8728 
-11.3147 52.9265 -17.2507 
-12.4523 48.516 -18.6285 
-13.59 44.1054 -20.0063 
-14.7276 39.6949 -21.3841 
-15.8653 35.2844 -22.7619 
-17.0029 30.8738 -24.1397 
-18.1406 26.4633 -25.5176 
-19.2782 22.0527 -26.8954 
-20.4159 17.6422 -28.2732 
-21.5535 13.2316 -29.651 
-22.6912 8.82109 -31.0288 
-23.8288 4.41054 -32.4067 
-24.9664 -7.10543e-15 -33.7845 
-7.8767 61.4511 -14.3834 
-8.82147 57.0618 -15.6157 
-9.76624 52.6724 -16.848 
-10.711 48.283 -18.0803 
-11.6558 43.8937 -19.3125 
-12.6005 39.5043 -20.5448 
-13.5453 35.1149 -21.7771 
-14.4901 30.7256 -23.0094 
-15.4349 26.3362 -24.2417 
-16.3796 21.9468 -25.4739 
-17.3244 17.5575 -26.7062 
-18.2692 13.1681 -27.9385 
-19.2139 8.77873 -29.1708 
-20.1587 4.38937 -30.4031 
-21.1035 -7.10543e-15 -31.6353 
-14.2751 59.4007 -4.60637 
-14.4214 54.7359 -6.10227 
-14.5677 50.071 -7.59818 
-14.112 59.5781 -5.14387 
-14.3292 54.8398 -6.6575 
-14.5463 50.1015 -8.17113 
-14.4998 59.0535 -3.51412 
-14.5272 54.8847 -4.67586 
-14.5545 50.7158 -5.83761 
-14.6545 58.9101 -2.95631 
-14.6482 54.7787 -4.00315 
-14.6419 50.6474 -5.05 
-14.6623 58.6198 -1.89382 
-14.5941 54.6252 -3.0068 
-14.5259 50.6307 -4.11979 
-14.7021 58.446 -1.29676 
-14.6208 54.5191 -2.40438 
-14.5396 50.5922 -3.512 
-14.4746 58.1736 -0.30017 
-14.3197 54.4157 -1.26229 
-14.1648 50.6578 -2.22441 
1.59216 59.4935 -8.93106 
1.52976 55.4755 -9.32281 
1.46737 51.4575 -9.71456 
1.40497 47.4394 -10.1063 
1.34258 43.4214 -10.498 
1.28018 39.4034 -10.8898 
3.28849 59.4317 -7.96732 
3.31879 55.3663 -8.24488 
3.3491 51.3008 -8.52245 
3.3794 47.2353 -8.80001 
3.40971 43.1699 -9.07757 
2.46946 59.4454 -8.45706 
2.50506 54.9938 -8.80195 
2.54066 50.5422 -9.14684 
2.57626 46.0906 -9.49174 
2.61186 41.639 -9.83663 
-13.799 59.8735 -6.15412 
-14.028 56.3961 -7.18122 
-14.2571 52.9188 -8.20831 
-14.4861 49.4414 -9.23541 
-12.9706 60.6103 -8.70693 
-13.526 55.948 -10.2074 
-14.0813 51.2856 -11.7079 
-14.6366 46.6233 -13.2084 
-15.1919 41.961 -14.7089 
-15.7473 37.2986 -16.2094 
-16.3026 32.6363 -17.7098 
-16.8579 27.974 -19.2103 
-17.4132 23.3117 -20.7108 
-17.9685 18.6493 -22.2113 
-18.5239 13.987 -23.7118 
-19.0792 9.32466 -25.2123 
-19.6345 4.66233 -26.7128 
-20.1898 0 -28.2132 
5.549 59.9667 -6.05147 
5.69171 56.2301 -6.24082 
5.83441 52.4935 -6.43017 
5.97712 48.7568 -6.61953 
-14.8871 59.3045 -1.34261 
-14.9106 54.8952 -2.58008 
-14.9341 50.4859 -3.81754 
-14.89 59.7927 -3.06284 
-14.9758 55.1792 -4.54332 
-15.0615 50.5657 -6.02381 
-14.8737 59.672 -2.68485 
-14.9249 55.114 -4.00046 
-14.976 50.556 -5.31607 
-14.6279 60.1913 -4.3153 
-14.7929 56.7591 -5.35362 
-14.9579 53.3269 -6.39194 
-15.1229 49.8947 -7.43026 
-14.1233 60.7293 -6.16953 
-14.5344 56.4151 -7.4829 
-14.9455 52.101 -8.79627 
-15.3566 47.7869 -10.1096 
-13.9797 60.7072 -6.13508 
-14.2755 56.681 -7.3142 
-14.5714 52.6549 -8.49332 
-14.8672 48.6287 -9.67245 
-14.5608 60.3281 -4.7599 
-14.8357 56.8332 -5.8525 
-15.1105 53.3384 -6.9451 
-15.3853 49.8435 -8.03769 
3.79059 60.007 -7.8182 
3.82305 55.8025 -8.05941 
3.85551 51.5981 -8.30062 
3.88797 47.3936 -8.54183 
3.92043 43.1891 -8.78304 
4.56064 60.0126 -7.1535 
4.71568 56.2094 -7.35298 
4.87071 52.4061 -7.55246 
5.02575 48.6029 -7.75193 
5.18079 44.7996 -7.95141 
2.30166 60.0937 -8.71188 
2.14699 56.0985 -9.10814 
1.99233 52.1033 -9.5044 
1.83766 48.1081 -9.90066 
1.683 44.1129 -10.2969 
1.52834 40.1178 -10.6932 
2.3699 60.0762 -8.56205 
2.1878 56.0874 -8.97181 
2.00571 52.0987 -9.38158 
1.82361 48.11 -9.79134 
1.64152 44.1213 -10.2011 
1.45942 40.1326 -10.6109 
-13.6339 61.2173 -7.73272 
-14.1013 56.5083 -9.29701 
-14.5688 51.7993 -10.8613 
-15.0362 47.0903 -12.4256 
-15.5037 42.3812 -13.9899 
-15.9711 37.6722 -15.5541 
-16.4386 32.9632 -17.1184 
-16.906 28.2542 -18.6827 
-17.3735 23.5451 -20.247 
-17.8409 18.8361 -21.8113 
-18.3084 14.1271 -23.3756 
-18.7758 9.41805 -24.9399 
-19.2433 4.70903 -26.5041 
-19.7107 0 -28.0684 
-13.9999 60.8517 -6.56794 
-14.4256 56.1708 -8.17127 
-14.8513 51.4899 -9.7746 
-15.2771 46.809 -11.3779 
-15.7028 42.1281 -12.9813 
-16.1285 37.4472 -14.5846 
-16.5542 32.7663 -16.1879 
-16.9799 28.0854 -17.7912 
-17.4056 23.4045 -19.3946 
-17.8314 18.7236 -20.9979 
-18.2571 14.0427 -22.6012 
-18.6828 9.3618 -24.2046 
-19.1085 4.6809 -25.8079 
-19.5342 7.10543e-15 -27.4112 
-13.7747 60.7243 -6.25583 
-14.1394 56.4611 -7.60501 
-14.5041 52.1979 -8.95419 
-14.8689 47.9346 -10.3034 
-13.1717 61.6504 -9.17624 
-13.9072 57.2468 -10.7519 
-14.6427 52.8432 -12.3276 
-15.3782 48.4396 -13.9033 
-16.1137 44.036 -15.479 
-16.8492 39.6324 -17.0547 
-17.5847 35.2288 -18.6304 
-18.3202 30.8252 -20.2061 
-19.0557 26.4216 -21.7818 
-19.7912 22.018 -23.3575 
-20.5267 17.6144 -24.9332 
-21.2622 13.2108 -26.5089 
-21.9977 8.8072 -28.0846 
-22.7332 4.4036 -29.6603 
-23.4687 7.10543e-15 -31.236 
-13.4819 61.3515 -8.20031 
-14.0943 56.6322 -9.72914 
-14.7068 51.9128 -11.258 
-15.3193 47.1935 -12.7868 
-15.9317 42.4741 -14.3156 
-16.5442 37.7548 -15.8445 
-17.1567 33.0354 -17.3733 
-17.7691 28.3161 -18.9021 
-18.3816 23.5967 -20.431 
-18.9941 18.8774 -21.9598 
-19.6065 14.158 -23.4886 
-20.219 9.4387 -25.0175 
-20.8315 4.71935 -26.5463 
-21.4439 0 -28.0751 
-12.331 61.9739 -10.4312 
-13.1582 57.5472 -12.0124 
-13.9854 53.1205 -13.5936 
-14.8126 48.6938 -15.1749 
-15.6398 44.2671 -16.7561 
-16.467 39.8404 -18.3373 
-17.2942 35.4137 -19.9185 
-18.1215 30.9869 -21.4997 
-18.9487 26.5602 -23.081 
-19.7759 22.1335 -24.6622 
-20.6031 17.7068 -26.2434 
-21.4303 13.2801 -27.8246 
-22.2575 8.85341 -29.4058 
-23.0847 4.42671 -30.9871 
-23.9119 0 -32.5683 
-12.8196 62.0086 -10.298 
-13.5914 57.5794 -11.9753 
-14.3631 53.1502 -13.6526 
-15.1349 48.721 -15.3299 
-15.9066 44.2918 -17.0072 
-16.6784 39.8627 -18.6845 
-17.4501 35.4335 -20.3618 
-18.2218 31.0043 -22.0391 
-18.9936 26.5751 -23.7164 
-19.7653 22.1459 -25.3937 
-20.5371 17.7167 -27.071 
-21.3088 13.2876 -28.7483 
-22.0806 8.85837 -30.4256 
-22.8523 4.42918 -32.1029 
-23.624 0 -33.7802 
-11.9916 62.6103 -12.4621 
-12.9789 58.1382 -14.1076 
-13.9662 53.666 -15.7531 
-14.9535 49.1938 -17.3985 
-15.9408 44.7217 -19.044 
-16.9281 40.2495 -20.6895 
-17.9154 35.7773 -22.335 
-18.9027 31.3052 -23.9805 
-19.89 26.833 -25.626 
-20.8773 22.3608 -27.2715 
-21.8646 17.8887 -28.9169 
-22.8519 13.4165 -30.5624 
-23.8392 8.94433 -32.2079 
-24.8265 4.47217 -33.8534 
-25.8138 -7.10543e-15 -35.4989 
-12.1357 62.5598 -12.2261 
-13.0937 58.0912 -13.7918 
-14.0517 53.6227 -15.3576 
-15.0098 49.1541 -16.9233 
-15.9678 44.6856 -18.4891 
-16.9258 40.217 -20.0549 
-17.8838 35.7484 -21.6206 
-18.8418 31.2799 -23.1864 
-19.7999 26.8113 -24.7521 
-20.7579 22.3428 -26.3179 
-21.7159 17.8742 -27.8837 
-22.6739 13.4057 -29.4494 
-23.6319 8.93711 -31.0152 
-24.59 4.46856 -32.581 
-25.548 0 -34.1467 
-12.3408 62.4109 -11.6834 
-13.3203 57.953 -13.248 
-14.2998 53.4951 -14.8126 
-15.2794 49.0372 -16.3773 
-16.2589 44.5792 -17.9419 
-17.2384 40.1213 -19.5065 
-18.2179 35.6634 -21.0711 
-19.1974 31.2055 -22.6358 
-20.1769 26.7475 -24.2004 
-21.1564 22.2896 -25.765 
-22.1359 17.8317 -27.3297 
-23.1154 13.3738 -28.8943 
-24.095 8.91585 -30.4589 
-25.0745 4.45792 -32.0235 
-26.054 0 -33.5882 
-12.7039 62.1347 -10.675 
-13.5502 57.6965 -12.3087 
-14.3966 53.2583 -13.9425 
-15.2429 48.8201 -15.5763 
-16.0893 44.3819 -17.2101 
-16.9357 39.9438 -18.8438 
-17.782 35.5056 -20.4776 
-18.6284 31.0674 -22.1114 
-19.4747 26.6292 -23.7452 
-20.3211 22.191 -25.3789 
-21.1674 17.7528 -27.0127 
-22.0138 13.3146 -28.6465 
-22.8601 8.87639 -30.2803 
-23.7065 4.43819 -31.914 
-24.5529 0 -33.5478 
-9.99694 62.8702 -14.5029 
-11.2607 58.3795 -15.9755 
-12.5244 53.8888 -17.4481 
-13.7881 49.3981 -18.9206 
-15.0519 44.9073 -20.3932 
-16.3156 40.4166 -21.8657 
-17.5793 35.9259 -23.3383 
-18.8431 31.4351 -24.8109 
-20.1068 26.9444 -26.2834 
-21.3706 22.4537 -27.756 
-22.6343 17.9629 -29.2286 
-23.898 13.4722 -30.7011 
-25.1618 8.98146 -32.1737 
-26.4255 4.49073 -33.6463 
-27.6892 -7.10543e-15 -35.1188 
-11.4176 62.9848 -13.69 
-12.6865 58.4859 -15.3912 
-13.9553 53.9869 -17.0925 
-15.2241 49.488 -18.7937 
-16.493 44.9891 -20.4949 
-17.7618 40.4902 -22.1962 
-19.0307 35.9913 -23.8974 
-20.2995 31.4924 -25.5986 
-21.5683 26.9935 -27.2998 
-22.8372 22.4946 -29.0011 
-24.106 17.9956 -30.7023 
-25.3749 13.4967 -32.4035 
-26.6437 8.99782 -34.1048 
-27.9125 4.49891 -35.806 
-29.1814 7.10543e-15 -37.5072 
-10.3975 63.13 -14.8326 
-11.9936 58.9213 -16.6542 
-13.5897 54.7127 -18.4759 
-15.1858 50.504 -20.2975 
-16.7818 46.2953 -22.1192 
-18.3779 42.0867 -23.9408 
-19.974 37.878 -25.7625 
-21.5701 33.6693 -27.5841 
-23.1662 29.4607 -29.4058 
-24.7622 25.252 -31.2274 
-26.3583 21.0433 -33.0491 
-27.9544 16.8347 -34.8707 
-29.5505 12.626 -36.6924 
-31.1466 8.41733 -38.514 
-32.7426 4.20867 -40.3357 
-34.3387 -7.10543e-15 -42.1573 
-10.0956 63.0657 -14.9904 
-11.6286 58.8613 -16.605 
-13.1617 54.6569 -18.2196 
-14.6947 50.4525 -19.8343 
-16.2278 46.2481 -21.4489 
-17.7609 42.0438 -23.0635 
-19.2939 37.8394 -24.6782 
-20.827 33.635 -26.2928 
-22.36 29.4306 -27.9074 
-23.8931 25.2263 -29.5221 
-25.4261 21.0219 -31.1367 
-26.9592 16.8175 -32.7513 
-28.4923 12.6131 -34.366 
-30.0253 8.40875 -35.9806 
-31.5584 4.20438 -37.5952 
-33.0914 0 -39.2099 
-10.2156 62.9773 -14.6392 
-11.5631 58.7788 -16.196 
-12.9106 54.5803 -17.7528 
-14.2581 50.3818 -19.3097 
-15.6056 46.1834 -20.8665 
-16.953 41.9849 -22.4233 
-18.3005 37.7864 -23.9802 
-19.648 33.5879 -25.537 
-20.9955 29.3894 -27.0939 
-22.343 25.1909 -28.6507 
-23.6905 20.9924 -30.2075 
-25.038 16.7939 -31.7644 
-26.3854 12.5955 -33.3212 
-27.7329 8.39697 -34.878 
-29.0804 4.19849 -36.4349 
-30.4279 7.10543e-15 -37.9917 
-8.34034 62.6002 -15.1962 
-9.6111 58.1288 -16.4449 
-10.8819 53.6573 -17.6936 
-12.1526 49.1859 -18.9423 
-13.4234 44.7144 -20.191 
-14.6942 40.243 -21.4397 
-15.9649 35.7715 -22.6884 
-17.2357 31.3001 -23.9371 
-18.5065 26.8287 -25.1858 
-19.7772 22.3572 -26.4345 
-21.048 17.8858 -27.6833 
-22.3188 13.4143 -28.932 
-23.5895 8.94289 -30.1807 
-24.8603 4.47144 -31.4294 
-26.1311 -7.10543e-15 -32.6781 
-7.10263 62.1897 -14.8996 
-8.21064 57.7476 -16.0315 
-9.31865 53.3055 -17.1635 
-10.4267 48.8633 -18.2954 
-11.5347 44.4212 -19.4274 
-12.6427 39.9791 -20.5593 
-13.7507 35.537 -21.6913 
-14.8587 31.0949 -22.8232 
-15.9667 26.6527 -23.9552 
-17.0747 22.2106 -25.0871 
-18.1827 17.7685 -26.2191 
-19.2908 13.3264 -27.351 
-20.3988 8.88424 -28.483 
-21.5068 4.44212 -29.6149 
-22.6148 7.10543e-15 -30.7469 
-8.57968 62.589 -14.9141 
-9.81226 58.1183 -16.2393 
-11.0448 53.6477 -17.5644 
-12.2774 49.177 -18.8895 
-13.51 44.7064 -20.2147 
-14.7426 40.2358 -21.5398 
-15.9751 35.7651 -22.865 
-17.2077 31.2945 -24.1901 
-18.4403 26.8238 -25.5152 
-19.6729 22.3532 -26.8404 
-20.9055 17.8826 -28.1655 
-22.138 13.4119 -29.4907 
-23.3706 8.94128 -30.8158 
-24.6032 4.47064 -32.1409 
-25.8358 7.10543e-15 -33.4661 
-8.55983 62.6436 -15.1183 
-9.96502 58.169 -16.5112 
-11.3702 53.6945 -17.904 
-12.7754 49.2199 -19.2969 
-14.1806 44.7454 -20.6897 
-15.5858 40.2709 -22.0825 
-16.991 35.7963 -23.4754 
-18.3961 31.3218 -24.8682 
-19.8013 26.8472 -26.2611 
-21.2065 22.3727 -27.6539 
-22.6117 17.8982 -29.0467 
-24.0169 13.4236 -30.4396 
-25.4221 8.94908 -31.8324 
-26.8273 4.47454 -33.2253 
-28.2324 0 -34.6181 
-5.70864 61.6657 -14.0923 
-6.67631 56.9222 -15.1034 
-7.64397 52.1787 -16.1145 
-8.61163 47.4351 -17.1256 
-9.5793 42.6916 -18.1368 
-10.547 37.9481 -19.1479 
-11.5146 33.2046 -20.159 
-12.4823 28.4611 -21.1701 
-13.4499 23.7176 -22.1812 
-14.4176 18.9741 -23.1923 
-15.3853 14.2305 -24.2034 
-16.3529 9.48703 -25.2145 
-17.3206 4.74351 -26.2257 
-18.2883 -7.10543e-15 -27.2368 
-6.27664 61.8589 -14.3749 
-7.31748 57.4404 -15.3807 
-8.35832 53.0219 -16.3866 
-9.39916 48.6034 -17.3925 
-10.44 44.1849 -18.3984 
-11.4808 39.7664 -19.4043 
-12.5217 35.348 -20.4102 
-13.5625 30.9295 -21.4161 
-14.6034 26.511 -22.422 
-15.6442 22.0925 -23.4279 
-16.685 17.674 -24.4337 
-17.7259 13.2555 -25.4396 
-18.7667 8.83699 -26.4455 
-19.8075 4.41849 -27.4514 
-20.8484 7.10543e-15 -28.4573 
-4.78564 61.3732 -13.4225 
-5.63333 56.6522 -14.3919 
-6.48102 51.9312 -15.3612 
-7.32871 47.2102 -16.3306 
-8.17639 42.4892 -17.2999 
-9.02408 37.7682 -18.2692 
-9.87177 33.0471 -19.2386 
-10.7195 28.3261 -20.2079 
-11.5671 23.6051 -21.1773 
-12.4148 18.8841 -22.1466 
-13.2625 14.1631 -23.116 
-14.1102 9.44204 -24.0853 
-14.9579 4.72102 -25.0547 
-15.8056 0 -26.024 
2.54654 60.0679 -8.55698 
2.44709 55.6451 -8.84076 
2.34764 51.2223 -9.12455 
2.24819 46.7995 -9.40833 
2.14874 42.3766 -9.69212 
2.4612 60.0697 -8.54645 
2.31426 55.4555 -8.91576 
2.16732 50.8412 -9.28507 
2.02037 46.227 -9.65438 
1.87343 41.6127 -10.0237 
2.47619 60.0728 -8.60511 
2.2493 55.642 -8.92123 
2.02241 51.2112 -9.23735 
1.79553 46.7804 -9.55347 
1.56864 42.3496 -9.86959 
