-14.2356 40.8559 17.0781 
-13.188 36.3163 15.5304 
-12.1405 31.7768 13.9827 
-11.0929 27.2372 12.435 
-10.0454 22.6977 10.8874 
-8.99782 18.1582 9.33966 
-7.95026 13.6186 7.79198 
-6.90271 9.07908 6.24429 
-5.85516 4.53954 4.69661 
-4.80761 0 3.14892 
-19.2295 58.918 23.0081 
-18.1799 54.3858 21.4399 
-17.1303 49.8537 19.8717 
-16.0807 45.3215 18.3035 
-15.0311 40.7894 16.7353 
-13.9815 36.2572 15.1671 
-12.9319 31.7251 13.5989 
-11.8822 27.1929 12.0308 
-10.8326 22.6608 10.4626 
-9.783 18.1286 8.89437 
-8.73339 13.5965 7.32618 
-7.68377 9.0643 5.75799 
-6.63416 4.53215 4.18979 
-5.58454 0 2.6216 
-20.7206 59.6376 20.006 
-19.6603 55.0501 18.3245 
-18.6001 50.4626 16.643 
-17.5398 45.8751 14.9614 
-16.4795 41.2876 13.2799 
-15.4193 36.7001 11.5983 
-14.359 32.1125 9.91681 
-13.2987 27.525 8.23528 
-12.2385 22.9375 6.55374 
-11.1782 18.35 4.87221 
-10.118 13.7625 3.19067 
-9.05769 9.17501 1.50914 
-7.99743 4.58751 -0.172396 
-6.93716 -7.10543e-15 -1.85393 
-19.8069 59.9604 19.6988 
-18.826 55.6775 18.1182 
-17.845 51.3946 16.5376 
-16.8641 47.1118 14.9569 
-15.8832 42.8289 13.3763 
-14.9022 38.546 11.7956 
-13.9213 34.2631 10.215 
-12.9404 29.9802 8.63432 
-11.9594 25.6973 7.05367 
-10.9785 21.4144 5.47303 
-9.99756 17.1315 3.89238 
-9.01663 12.8487 2.31173 
-8.0357 8.56577 0.731085 
-7.05477 4.28289 -0.849562 
-6.07384 -7.10543e-15 -2.43021 
-20.2759 59.2894 21.2281 
-19.2219 54.7286 19.6002 
-18.1679 50.1679 17.9724 
-17.1139 45.6072 16.3445 
-16.0598 41.0465 14.7166 
-15.0058 36.4858 13.0888 
-13.9518 31.925 11.4609 
-12.8978 27.3643 9.83305 
-11.8438 22.8036 8.20519 
-10.7898 18.2429 6.57733 
-9.73577 13.6822 4.94947 
-8.68176 9.12144 3.32161 
-7.62775 4.56072 1.69375 
-6.57374 0 0.0658844 
-20.452 59.8559 19.5794 
-19.4538 55.5804 18.0004 
-18.4556 51.305 16.4215 
-17.4574 47.0296 14.8426 
-16.4592 42.7542 13.2637 
-15.461 38.4788 11.6847 
-14.4628 34.2034 10.1058 
-13.4646 29.9279 8.52687 
-12.4664 25.6525 6.94795 
-11.4682 21.3771 5.36902 
-10.47 17.1017 3.7901 
-9.47183 12.8263 2.21117 
-8.47363 8.55084 0.632245 
-7.47543 4.27542 -0.94668 
-6.47724 7.10543e-15 -2.52561 
-19.999 58.9613 22.3721 
-18.9546 54.4258 20.805 
-17.9102 49.8903 19.238 
-16.8659 45.3548 17.6709 
-15.8215 40.8194 16.1039 
-14.7772 36.2839 14.5368 
-13.7328 31.7484 12.9698 
-12.6884 27.2129 11.4027 
-11.6441 22.6774 9.83568 
-10.5997 18.1419 8.26863 
-9.55536 13.6065 6.70158 
-8.511 9.07097 5.13452 
-7.46663 4.53548 3.56747 
-6.42227 0 2.00042 
-17.7926 58.2409 26.0772 
-16.7688 53.7608 24.6278 
-15.7451 49.2808 23.1784 
-14.7213 44.8007 21.7291 
-13.6975 40.3206 20.2797 
-12.6738 35.8405 18.8303 
-11.65 31.3605 17.3809 
-10.6262 26.8804 15.9315 
-9.60248 22.4003 14.4821 
-8.57871 17.9203 13.0327 
-7.55495 13.4402 11.5833 
-6.53118 8.96014 10.134 
-5.50742 4.48007 8.68457 
-4.48365 0 7.23519 
-17.2909 58.6114 25.2792 
-16.2616 54.1028 23.8217 
-15.2323 49.5942 22.3642 
-14.203 45.0857 20.9067 
-13.1737 40.5771 19.4492 
-12.1444 36.0685 17.9917 
-11.1151 31.56 16.5342 
-10.0858 27.0514 15.0767 
-9.05651 22.5428 13.6192 
-8.02721 18.0343 12.1617 
-6.99791 13.5257 10.7042 
-5.96861 9.01714 9.24671 
-4.93932 4.50857 7.78921 
-3.91002 0 6.33171 
-18.4209 58.3628 25.2387 
-17.3792 53.8734 23.7833 
-16.3374 49.3839 22.3279 
-15.2957 44.8945 20.8725 
-14.2539 40.405 19.4171 
-13.2122 35.9156 17.9617 
-12.1704 31.4261 16.5063 
-11.1287 26.9367 15.0509 
-10.0869 22.4472 13.5955 
-9.04515 17.9578 12.1401 
-8.0034 13.4683 10.6848 
-6.96165 8.97889 9.22937 
-5.9199 4.48945 7.77397 
-4.87814 0 6.31858 
-19.5967 58.7442 23.2625 
-18.5448 54.2254 21.6944 
-17.493 49.7066 20.1263 
-16.4411 45.1879 18.5582 
-15.3892 40.6691 16.9901 
-14.3374 36.1503 15.422 
-13.2855 31.6315 13.8539 
-12.2336 27.1127 12.2858 
-11.1818 22.5939 10.7177 
-10.1299 18.0751 9.14962 
-9.07806 13.5564 7.58152 
-8.0262 9.03757 6.01342 
-6.97434 4.51879 4.44532 
-5.92248 0 2.87722 
-19.306 58.6184 23.8234 
-18.253 54.1093 22.2937 
-17.2001 49.6002 20.7639 
-16.1472 45.0911 19.2342 
-15.0943 40.5819 17.7044 
-14.0414 36.0728 16.1746 
-12.9885 31.5637 14.6449 
-11.9355 27.0546 13.1151 
-10.8826 22.5455 11.5854 
-9.82972 18.0364 10.0556 
-8.7768 13.5273 8.52584 
-7.72389 9.01821 6.99608 
-6.67097 4.50911 5.46632 
-5.61806 0 3.93656 
-16.9104 58.1184 27.0554 
-15.8561 53.6477 25.6123 
-14.8018 49.1771 24.1692 
-13.7475 44.7064 22.726 
-12.6932 40.2358 21.2829 
-11.639 35.7652 19.8398 
-10.5847 31.2945 18.3967 
-9.53038 26.8239 16.9536 
-8.4761 22.3532 15.5104 
-7.42181 17.8826 14.0673 
-6.36752 13.4119 12.6242 
-5.31324 8.94129 11.1811 
-4.25895 4.47064 9.73796 
-3.20466 0 8.29484 
-14.6387 57.9596 29.4251 
-13.3939 53.5012 28.1116 
-12.1491 49.0427 26.7982 
-10.9042 44.5843 25.4847 
-9.65942 40.1259 24.1712 
-8.4146 35.6674 22.8578 
-7.16978 31.209 21.5443 
-5.92496 26.7506 20.2308 
-4.68015 22.2922 18.9174 
-3.43533 17.8337 17.6039 
-2.19051 13.3753 16.2904 
-0.945692 8.91686 14.9769 
0.299126 4.45843 13.6635 
1.54394 0 12.35 
-9.12403 58.8277 32.1126 
-7.90771 54.3025 31.3087 
-6.69139 49.7773 30.5048 
-5.47506 45.2521 29.7009 
-4.25874 40.7269 28.897 
-3.04242 36.2017 28.0931 
-1.82609 31.6765 27.2892 
-0.609768 27.1513 26.4853 
0.606555 22.626 25.6814 
1.82288 18.1008 24.8774 
3.0392 13.5756 24.0735 
4.25553 9.05042 23.2696 
5.47185 4.52521 22.4657 
6.68817 0 21.6618 
-8.55018 58.7878 33.287 
-7.2753 54.2656 32.5374 
-6.00041 49.7435 31.7878 
-4.72553 45.2213 31.0382 
-3.45064 40.6992 30.2885 
-2.17575 36.1771 29.5389 
-0.900868 31.6549 28.7893 
0.374018 27.1328 28.0397 
1.6489 22.6107 27.2901 
2.92379 18.0885 26.5404 
4.19867 13.5664 25.7908 
5.47356 9.04427 25.0412 
6.74845 4.52213 24.2916 
8.02333 0 23.5419 
-11.6256 63.1592 15.5168 
-10.8719 58.6478 13.778 
-10.1183 54.1365 12.0392 
-9.36466 49.6251 10.3004 
-8.61102 45.1137 8.56159 
-7.85737 40.6024 6.82279 
-7.10373 36.091 5.08398 
-6.35009 31.5796 3.34518 
-5.59645 27.0682 1.60637 
-4.84281 22.5569 -0.132431 
-4.08917 18.0455 -1.87124 
-3.33553 13.5341 -3.61004 
-2.58189 9.02275 -5.34884 
-1.82825 4.51137 -7.08765 
-1.07461 0 -8.82645 
-11.5405 63.1963 15.4556 
-11.0034 58.6823 13.5287 
-10.4662 54.1683 11.6017 
-9.92907 49.6542 9.6748 
-9.39192 45.1402 7.74786 
-8.85476 40.6262 5.82091 
-8.3176 36.1122 3.89397 
-7.78044 31.5982 1.96702 
-7.24329 27.0841 0.0400779 
-6.70613 22.5701 -1.88687 
-6.16897 18.0561 -3.81381 
-5.63181 13.5421 -5.74076 
-5.09465 9.02804 -7.6677 
-4.5575 4.51402 -9.59465 
-4.02034 0 -11.5216 
-9.97526 63.881 14.3604 
-9.58253 59.6223 12.4448 
-9.18981 55.3635 10.5293 
-8.79708 51.1048 8.61372 
-8.40435 46.8461 6.69818 
-8.01163 42.5873 4.78263 
-7.6189 38.3286 2.86709 
-7.22617 34.0699 0.951544 
-6.83344 29.8111 -0.964001 
-6.44072 25.5524 -2.87954 
-6.04799 21.2937 -4.79509 
-5.65526 17.0349 -6.71063 
-5.26254 12.7762 -8.62618 
-4.86981 8.51747 -10.5417 
-4.47708 4.25873 -12.4573 
-4.08435 0 -14.3728 
-8.74162 64.495 13.2116 
-8.39628 60.1953 11.2503 
-8.05093 55.8957 9.28895 
-7.70559 51.596 7.32762 
-7.36024 47.2963 5.36628 
-7.0149 42.9967 3.40495 
-6.66955 38.697 1.44361 
-6.32421 34.3973 -0.517725 
-5.97886 30.0977 -2.47906 
-5.63352 25.798 -4.4404 
-5.28817 21.4983 -6.40173 
-4.94283 17.1987 -8.36307 
-4.59748 12.899 -10.3244 
-4.25213 8.59933 -12.2857 
-3.90679 4.29967 -14.2471 
-3.56144 0 -16.2084 
-8.49749 64.6191 12.9928 
-8.20307 60.3111 11.0021 
-7.90866 56.0032 9.01143 
-7.61424 51.6953 7.02074 
-7.31983 47.3873 5.03005 
-7.02541 43.0794 3.03936 
-6.731 38.7714 1.04867 
-6.43658 34.4635 -0.942018 
-6.14217 30.1556 -2.93271 
-5.84776 25.8476 -4.9234 
-5.55334 21.5397 -6.91408 
-5.25893 17.2318 -8.90477 
-4.96451 12.9238 -10.8955 
-4.6701 8.61588 -12.8862 
-4.37568 4.30794 -14.8768 
-4.08127 0 -16.8675 
4.95169 60.0522 27.0246 
4.2337 55.4328 26.5335 
3.51571 50.8134 26.0424 
2.79772 46.194 25.5513 
2.07972 41.5746 25.0602 
1.36173 36.9552 24.5691 
0.643743 32.3358 24.078 
-0.0742484 27.7164 23.5869 
-0.792239 23.097 23.0958 
-1.51023 18.4776 22.6047 
-2.22822 13.8582 22.1136 
-2.94621 9.23879 21.6225 
-3.6642 4.6194 21.1314 
-4.38219 0 20.6403 
5.04667 60.0535 26.8584 
4.34186 55.434 26.2182 
3.63704 50.8145 25.5779 
2.93223 46.195 24.9376 
2.22742 41.5755 24.2974 
1.52261 36.956 23.6571 
0.817795 32.3365 23.0168 
0.112982 27.717 22.3765 
-0.59183 23.0975 21.7363 
-1.29664 18.478 21.096 
-2.00145 13.8585 20.4557 
-2.70627 9.239 19.8154 
-3.41108 4.6195 19.1752 
-4.11589 0 18.5349 
-19.8165 64.3787 8.68813 
-19.2771 60.0868 6.90418 
-18.7377 55.7948 5.12024 
-18.1983 51.5029 3.33629 
-17.6589 47.211 1.55235 
-17.1195 42.9191 -0.231594 
-16.5801 38.6272 -2.01554 
-16.0407 34.3353 -3.79948 
-15.5013 30.0434 -5.58343 
-14.9619 25.7515 -7.36737 
-14.4226 21.4596 -9.15131 
-13.8832 17.1676 -10.9353 
-13.3438 12.8757 -12.7192 
-12.8044 8.58382 -14.5031 
-12.265 4.29191 -16.2871 
-11.7256 0 -18.071 
-19.4004 65.0228 7.21682 
-18.9653 60.688 5.42366 
-18.5303 56.3531 3.63049 
-18.0952 52.0183 1.83733 
-17.6601 47.6834 0.0441635 
-17.2251 43.3486 -1.749 
-16.79 39.0137 -3.54217 
-16.355 34.6789 -5.33533 
-15.9199 30.344 -7.12849 
-15.4848 26.0091 -8.92166 
-15.0498 21.6743 -10.7148 
-14.6147 17.3394 -12.508 
-14.1797 13.0046 -14.3012 
-13.7446 8.66971 -16.0943 
-13.3095 4.33486 -17.8875 
-12.8745 0 -19.6806 
-19.7639 65.0717 6.98453 
-19.2522 60.7335 4.96997 
-18.7405 56.3954 2.95541 
-18.2289 52.0573 0.940847 
-17.7172 47.7192 -1.07371 
-17.2055 43.3811 -3.08828 
-16.6938 39.043 -5.10284 
-16.1821 34.7049 -7.1174 
-15.6704 30.3668 -9.13196 
-15.1588 26.0287 -11.1465 
-14.6471 21.6906 -13.1611 
-14.1354 17.3524 -15.1756 
-13.6237 13.0143 -17.1902 
-13.112 8.67622 -19.2048 
-12.6003 4.33811 -21.2193 
-12.0887 0 -23.2339 
-20.8012 64.4687 8.26744 
-20.3878 60.1708 6.38025 
-19.9744 55.8729 4.49307 
-19.5611 51.5749 2.60589 
-19.1477 47.277 0.718704 
-18.7343 42.9791 -1.16848 
-18.3209 38.6812 -3.05566 
-17.9075 34.3833 -4.94285 
-17.4941 30.0854 -6.83003 
-17.0807 25.7875 -8.71721 
-16.6673 21.4896 -10.6044 
-16.2539 17.1916 -12.4916 
-15.8406 12.8937 -14.3788 
-15.4272 8.59582 -16.2659 
-15.0138 4.29791 -18.1531 
-14.6004 0 -20.0403 
-18.6703 64.4939 8.76413 
-18.0943 59.8872 7.01778 
-17.5184 55.2805 5.27143 
-16.9424 50.6738 3.52508 
-16.3664 46.0671 1.77873 
-15.7904 41.4604 0.0323854 
-15.2144 36.8537 -1.71396 
-14.6385 32.247 -3.46031 
-14.0625 27.6403 -5.20666 
-13.4865 23.0335 -6.95301 
-12.9105 18.4268 -8.69936 
-12.3345 13.8201 -10.4457 
-11.7586 9.21342 -12.1921 
-11.1826 4.60671 -13.9384 
-10.6066 0 -15.6848 
-17.8345 64.6409 8.61235 
-17.3815 60.0237 6.9836 
-16.9285 55.4065 5.35486 
-16.4756 50.7892 3.72611 
-16.0226 46.172 2.09737 
-15.5696 41.5548 0.468625 
-15.1166 36.9376 -1.16012 
-14.6636 32.3204 -2.78886 
-14.2107 27.7032 -4.41761 
-13.7577 23.086 -6.04635 
-13.3047 18.4688 -7.6751 
-12.8517 13.8516 -9.30384 
-12.3988 9.23441 -10.9326 
-11.9458 4.6172 -12.5613 
-11.4928 0 -14.1901 
-20.3042 65.4597 6.11292 
-20.1253 61.0957 4.16817 
-19.9463 56.7318 2.22343 
-19.7674 52.3678 0.278693 
-19.5885 48.0038 -1.66605 
-19.4096 43.6398 -3.61079 
-19.2307 39.2758 -5.55553 
-19.0518 34.9119 -7.50027 
-18.8729 30.5479 -9.44501 
-18.694 26.1839 -11.3898 
-18.5151 21.8199 -13.3345 
-18.3362 17.4559 -15.2792 
-18.1573 13.0919 -17.224 
-17.9784 8.72796 -19.1687 
-17.7995 4.36398 -21.1135 
-17.6206 0 -23.0582 
22.1051 77.0874 -46.3332 
21.1952 72.5529 -47.3273 
20.2853 68.0183 -48.3214 
19.3755 63.4838 -49.3156 
18.4656 58.9492 -50.3097 
17.5557 54.4147 -51.3038 
16.6459 49.8801 -52.298 
15.736 45.3455 -53.2921 
14.8261 40.811 -54.2862 
13.9162 36.2764 -55.2804 
13.0064 31.7419 -56.2745 
12.0965 27.2073 -57.2686 
11.1866 22.6728 -58.2628 
10.2768 18.1382 -59.2569 
9.36688 13.6037 -60.251 
8.45701 9.06911 -61.2452 
7.54714 4.53455 -62.2393 
6.63727 0 -63.2334 
20.6262 77.4056 -46.6686 
19.8577 72.8523 -47.6005 
19.0893 68.2991 -48.5324 
18.3208 63.7458 -49.4643 
17.5524 59.1925 -50.3962 
16.7839 54.6392 -51.3281 
16.0155 50.086 -52.26 
15.2471 45.5327 -53.1918 
14.4786 40.9794 -54.1237 
13.7102 36.4262 -55.0556 
12.9417 31.8729 -55.9875 
12.1733 27.3196 -56.9194 
11.4048 22.7664 -57.8513 
10.6364 18.2131 -58.7831 
9.86794 13.6598 -59.715 
9.09949 9.10654 -60.6469 
8.33105 4.55327 -61.5788 
7.5626 0 -62.5107 
22.4482 76.7749 -45.2821 
21.504 72.2587 -46.3313 
20.5598 67.7425 -47.3805 
19.6156 63.2263 -48.4297 
18.6713 58.7102 -49.4788 
17.7271 54.194 -50.528 
16.7829 49.6778 -51.5772 
15.8387 45.1617 -52.6264 
14.8945 40.6455 -53.6755 
13.9503 36.1293 -54.7247 
13.0061 31.6132 -55.7739 
12.0618 27.097 -56.8231 
11.1176 22.5808 -57.8722 
10.1734 18.0647 -58.9214 
9.22919 13.5485 -59.9706 
8.28497 9.03234 -61.0198 
7.34076 4.51617 -62.0689 
6.39654 0 -63.1181 
23.1355 76.7946 -46.125 
22.0518 72.2773 -47.1147 
20.9681 67.76 -48.1043 
19.8844 63.2426 -49.094 
18.8007 58.7253 -50.0837 
17.717 54.208 -51.0733 
16.6333 49.6906 -52.063 
15.5496 45.1733 -53.0527 
14.4659 40.656 -54.0423 
13.3822 36.1386 -55.032 
12.2985 31.6213 -56.0217 
11.2148 27.104 -57.0113 
10.1311 22.5867 -58.001 
9.04736 18.0693 -58.9907 
7.96366 13.552 -59.9803 
6.87996 9.03466 -60.97 
5.79626 4.51733 -61.9597 
4.71256 0 -62.9493 
-20.8254 61.8078 14.3882 
-19.8649 57.3929 12.5573 
-18.9044 52.9781 10.7264 
-17.9439 48.5632 8.89558 
-16.9834 44.1484 7.06471 
-16.0229 39.7336 5.23385 
-15.0624 35.3187 3.40299 
-14.1019 30.9039 1.57213 
-13.1414 26.489 -0.258735 
-12.1809 22.0742 -2.0896 
-11.2204 17.6594 -3.92046 
-10.2599 13.2445 -5.75132 
-9.29941 8.82968 -7.58218 
-8.33891 4.41484 -9.41305 
-7.37841 -7.10543e-15 -11.2439 
-21.1853 61.2105 15.6554 
-20.204 56.8383 13.8944 
-19.2227 52.4661 12.1333 
-18.2414 48.0939 10.3723 
-17.26 43.7218 8.61126 
-16.2787 39.3496 6.85022 
-15.2974 34.9774 5.08917 
-14.3161 30.6052 3.32813 
-13.3348 26.2331 1.56709 
-12.3535 21.8609 -0.193957 
-11.3722 17.4887 -1.955 
-10.3909 13.1165 -3.71604 
-9.40954 8.74435 -5.47709 
-8.42822 4.37218 -7.23813 
-7.44691 0 -8.99918 
-20.0111 61.8878 14.6303 
-19.0592 57.4673 12.8279 
-18.1074 53.0467 11.0256 
-17.1555 48.6262 9.22316 
-16.2037 44.2056 7.42077 
-15.2518 39.785 5.61837 
-14.2999 35.3645 3.81598 
-13.3481 30.9439 2.01358 
-12.3962 26.5234 0.211191 
-11.4444 22.1028 -1.5912 
-10.4925 17.6822 -3.3936 
-9.54067 13.2617 -5.19599 
-8.58881 8.84112 -6.99838 
-7.63696 4.42056 -8.80078 
-6.6851 0 -10.6032 
-19.2091 61.6641 15.6077 
-18.2683 57.2595 13.8514 
-17.3276 52.8549 12.0951 
-16.3869 48.4503 10.3388 
-15.4461 44.0458 8.58248 
-14.5054 39.6412 6.82618 
-13.5647 35.2366 5.06988 
-12.6239 30.832 3.31358 
-11.6832 26.4275 1.55729 
-10.7425 22.0229 -0.199011 
-9.80172 17.6183 -1.95531 
-8.86099 13.2137 -3.71161 
-7.92025 8.80915 -5.4679 
-6.97952 4.40458 -7.2242 
-6.03879 0 -8.9805 
5.59847 60.4339 24.0589 
4.80164 55.7851 23.0765 
4.00482 51.1364 22.0941 
3.20799 46.4876 21.1118 
2.41116 41.8388 20.1294 
1.61433 37.1901 19.147 
0.817507 32.5413 18.1646 
0.0206798 27.8926 17.1823 
-0.776148 23.2438 16.1999 
-1.57298 18.595 15.2175 
-2.3698 13.9463 14.2351 
-3.16663 9.29752 13.2527 
-3.96346 4.64876 12.2704 
-4.76029 0 11.288 
3.54577 64.4983 11.6156 
2.86178 59.8913 9.84915 
2.1778 55.2843 8.08273 
1.49382 50.6772 6.31632 
0.809834 46.0702 4.54991 
0.12585 41.4632 2.78349 
-0.558133 36.8562 1.01708 
-1.24212 32.2491 -0.749332 
-1.9261 27.6421 -2.51575 
-2.61008 23.0351 -4.28216 
-3.29407 18.4281 -6.04857 
-3.97805 13.8211 -7.81498 
-4.66203 9.21404 -9.5814 
-5.34602 4.60702 -11.3478 
-6.03 0 -13.1142 
3.50566 64.522 11.568 
2.88758 59.9133 9.76169 
2.2695 55.3046 7.95539 
1.65141 50.6958 6.14908 
1.03333 46.0871 4.34278 
0.415247 41.4784 2.53648 
-0.202837 36.8697 0.730171 
-0.82092 32.261 -1.07613 
-1.439 27.6523 -2.88244 
-2.05709 23.0436 -4.68874 
-2.67517 18.4349 -6.49505 
-3.29325 13.8261 -8.30135 
-3.91134 9.21743 -10.1077 
-4.52942 4.60871 -11.914 
-5.14751 0 -13.7203 
-7.04758 79.6155 -17.6777 
-8.82186 75.4252 -19.7105 
-10.5961 71.235 -21.7433 
-12.3704 67.0447 -23.7761 
-14.1447 62.8544 -25.8089 
-15.919 58.6641 -27.8417 
-17.6933 54.4738 -29.8745 
-19.4675 50.2835 -31.9073 
-21.2418 46.0932 -33.9402 
-23.0161 41.9029 -35.973 
-24.7904 37.7126 -38.0058 
-26.5646 33.5223 -40.0386 
-28.3389 29.332 -42.0714 
-30.1132 25.1417 -44.1042 
-31.8875 20.9515 -46.137 
-33.6618 16.7612 -48.1698 
-35.436 12.5709 -50.2026 
-37.2103 8.38058 -52.2354 
-38.9846 4.19029 -54.2682 
-40.7589 0 -56.301 
7.37196 78.082 -29.0766 
5.87418 73.7441 -30.2238 
4.3764 69.4062 -31.3711 
2.87861 65.0683 -32.5183 
1.38083 60.7304 -33.6656 
-0.116956 56.3926 -34.8128 
-1.61474 52.0547 -35.9601 
-3.11252 47.7168 -37.1073 
-4.61031 43.3789 -38.2546 
-6.10809 39.041 -39.4018 
-7.60587 34.7031 -40.5491 
-9.10366 30.3652 -41.6963 
-10.6014 26.0273 -42.8436 
-12.0992 21.6894 -43.9908 
-13.597 17.3516 -45.1381 
-15.0948 13.0137 -46.2853 
-16.5926 8.67578 -47.4326 
-18.0904 4.33789 -48.5798 
-19.5881 0 -49.7271 
6.4102 78.5513 -29.5753 
4.86344 74.1873 -30.738 
3.31667 69.8234 -31.9008 
1.7699 65.4594 -33.0635 
0.223132 61.0954 -34.2263 
-1.32364 56.7315 -35.389 
-2.8704 52.3675 -36.5518 
-4.41717 48.0036 -37.7145 
-5.96394 43.6396 -38.8773 
-7.51071 39.2756 -40.04 
-9.05748 34.9117 -41.2028 
-10.6042 30.5477 -42.3655 
-12.151 26.1838 -43.5282 
-13.6978 21.8198 -44.691 
-15.2445 17.4558 -45.8537 
-16.7913 13.0919 -47.0165 
-18.3381 8.72792 -48.1792 
-19.8849 4.36396 -49.342 
-21.4316 0 -50.5047 
-10.2029 82.0715 -19.6262 
-12.1807 78.1633 -21.6157 
-14.1586 74.2551 -23.6053 
-16.1364 70.347 -25.5949 
-18.1142 66.4388 -27.5845 
-20.092 62.5306 -29.5741 
-22.0698 58.6225 -31.5636 
-24.0477 54.7143 -33.5532 
-26.0255 50.8061 -35.5428 
-28.0033 46.898 -37.5324 
-29.9811 42.9898 -39.5219 
-31.9589 39.0817 -41.5115 
-33.9368 35.1735 -43.5011 
-35.9146 31.2653 -45.4907 
-37.8924 27.3572 -47.4803 
-39.8702 23.449 -49.4698 
-41.848 19.5408 -51.4594 
-43.8259 15.6327 -53.449 
-45.8037 11.7245 -55.4386 
-47.7815 7.81633 -57.4281 
-49.7593 3.90817 -59.4177 
-51.7371 0 -61.4073 
-12.7733 84.8462 -22.2738 
-14.9793 80.9896 -24.1969 
-17.1853 77.1329 -26.1201 
-19.3913 73.2763 -28.0432 
-21.5973 69.4197 -29.9663 
-23.8032 65.563 -31.8894 
-26.0092 61.7064 -33.8125 
-28.2152 57.8497 -35.7356 
-30.4212 53.9931 -37.6587 
-32.6272 50.1364 -39.5818 
-34.8332 46.2798 -41.5049 
-37.0391 42.4231 -43.428 
-39.2451 38.5665 -45.3512 
-41.4511 34.7098 -47.2743 
-43.6571 30.8532 -49.1974 
-45.8631 26.9965 -51.1205 
-48.0691 23.1399 -53.0436 
-50.275 19.2832 -54.9667 
-52.481 15.4266 -56.8898 
-54.687 11.5699 -58.8129 
-56.893 7.71329 -60.736 
-59.099 3.85665 -62.6592 
-61.3049 0 -64.5823 
-13.1308 85.3183 -22.8048 
-15.4318 81.4402 -24.8546 
-17.7328 77.5621 -26.9043 
-20.0339 73.684 -28.9541 
-22.3349 69.8059 -31.0039 
-24.6359 65.9278 -33.0537 
-26.9369 62.0497 -35.1035 
-29.238 58.1716 -37.1532 
-31.539 54.2935 -39.203 
-33.84 50.4154 -41.2528 
-36.1411 46.5373 -43.3026 
-38.4421 42.6592 -45.3524 
-40.7431 38.7811 -47.4021 
-43.0441 34.903 -49.4519 
-45.3452 31.0248 -51.5017 
-47.6462 27.1467 -53.5515 
-49.9472 23.2686 -55.6013 
-52.2482 19.3905 -57.651 
-54.5493 15.5124 -59.7008 
-56.8503 11.6343 -61.7506 
-59.1513 7.75621 -63.8004 
-61.4523 3.87811 -65.8501 
-63.7534 0 -67.8999 
-14.8423 88.3912 -24.8051 
-17.3276 84.7098 -26.6244 
-19.8129 81.0284 -28.4438 
-22.2982 77.347 -30.2631 
-24.7835 73.6655 -32.0825 
-27.2688 69.9841 -33.9018 
-14.0186 87.2571 -23.6189 
-16.5431 83.46 -25.4835 
-19.0675 79.6629 -27.3481 
-21.592 75.8658 -29.2127 
-24.1165 72.0687 -31.0772 
-26.641 68.2716 -32.9418 
-13.8913 87.0885 -23.4499 
-16.3903 83.2649 -25.3567 
-18.8894 79.4414 -27.2634 
-21.3884 75.6178 -29.1702 
-23.8874 71.7943 -31.077 
-26.3864 67.9707 -32.9837 
-13.8092 86.9862 -23.3571 
-16.1803 83.2042 -25.3245 
-18.5515 79.4222 -27.2919 
-20.9226 75.6402 -29.2593 
-23.2937 71.8582 -31.2267 
-25.6648 68.0762 -33.1941 
-28.036 64.2942 -35.1615 
-30.4071 60.5121 -37.1288 
-32.7782 56.7301 -39.0962 
-35.1494 52.9481 -41.0636 
-37.5205 49.1661 -43.031 
-39.8916 45.3841 -44.9984 
-42.2627 41.6021 -46.9658 
-44.6339 37.8201 -48.9332 
-47.005 34.0381 -50.9006 
-49.3761 30.2561 -52.868 
-51.7472 26.4741 -54.8354 
-54.1184 22.6921 -56.8027 
-56.4895 18.91 -58.7701 
-58.8606 15.128 -60.7375 
-61.2318 11.346 -62.7049 
-63.6029 7.56402 -64.6723 
-65.974 3.78201 -66.6397 
-68.3451 0 -68.6071 
-11.0853 83.8332 -20.3467 
-13.1686 80.0226 -22.3359 
-15.252 76.212 -24.3251 
-17.3353 72.4014 -26.3142 
-19.4187 68.5908 -28.3034 
-21.502 64.7802 -30.2926 
-23.5854 60.9696 -32.2817 
-25.6687 57.159 -34.2709 
-27.7521 53.3484 -36.2601 
-29.8354 49.5378 -38.2492 
-31.9188 45.7272 -40.2384 
-34.0021 41.9166 -42.2275 
-36.0854 38.106 -44.2167 
-38.1688 34.2954 -46.2059 
-40.2521 30.4848 -48.195 
-42.3355 26.6742 -50.1842 
-44.4188 22.8636 -52.1734 
-46.5022 19.053 -54.1625 
-48.5855 15.2424 -56.1517 
-50.6689 11.4318 -58.1409 
-52.7522 7.6212 -60.13 
-54.8355 3.8106 -62.1192 
-56.9189 0 -64.1084 
-12 84.6019 -20.854 
-14.1256 80.7563 -22.8255 
-16.2513 76.9108 -24.7969 
-18.3769 73.0653 -26.7684 
-20.5026 69.2197 -28.7398 
-22.6282 65.3742 -30.7112 
-24.7538 61.5286 -32.6827 
-26.8795 57.6831 -34.6541 
-29.0051 53.8376 -36.6255 
-31.1308 49.992 -38.597 
-33.2564 46.1465 -40.5684 
-35.3821 42.3009 -42.5398 
-37.5077 38.4554 -44.5113 
-39.6333 34.6099 -46.4827 
-41.759 30.7643 -48.4541 
-43.8846 26.9188 -50.4256 
-46.0103 23.0732 -52.397 
-48.1359 19.2277 -54.3684 
-50.2616 15.3822 -56.3399 
-52.3872 11.5366 -58.3113 
-54.5129 7.69108 -60.2828 
-56.6385 3.84554 -62.2542 
-58.7641 0 -64.2256 
-10.8457 83.2457 -19.4815 
-12.9443 79.2816 -21.5507 
-15.0429 75.3175 -23.6199 
-17.1415 71.3535 -25.6892 
-19.24 67.3894 -27.7584 
-21.3386 63.4253 -29.8276 
-23.4372 59.4612 -31.8968 
-25.5358 55.4971 -33.966 
-27.6343 51.5331 -36.0352 
-29.7329 47.569 -38.1044 
-31.8315 43.6049 -40.1737 
-33.9301 39.6408 -42.2429 
-36.0287 35.6767 -44.3121 
-38.1272 31.7127 -46.3813 
-40.2258 27.7486 -48.4505 
-42.3244 23.7845 -50.5197 
-44.423 19.8204 -52.589 
-46.5215 15.8563 -54.6582 
-48.6201 11.8922 -56.7274 
-50.7187 7.92816 -58.7966 
-52.8173 3.96408 -60.8658 
-54.9159 0 -62.935 
-11.0554 83.4534 -19.6588 
-13.2236 79.4795 -21.7585 
-15.3917 75.5055 -23.8583 
-17.5599 71.5315 -25.9581 
-19.728 67.5575 -28.0579 
-21.8962 63.5836 -30.1577 
-24.0643 59.6096 -32.2574 
-26.2325 55.6356 -34.3572 
-28.4006 51.6616 -36.457 
-30.5688 47.6877 -38.5568 
-32.7369 43.7137 -40.6565 
-34.9051 39.7397 -42.7563 
-37.0732 35.7658 -44.8561 
-39.2414 31.7918 -46.9559 
-41.4095 27.8178 -49.0557 
-43.5777 23.8438 -51.1554 
-45.7458 19.8699 -53.2552 
-47.9139 15.8959 -55.355 
-50.0821 11.9219 -57.4548 
-52.2502 7.94795 -59.5545 
-54.4184 3.97397 -61.6543 
-56.5865 0 -63.7541 
8.29893 79.169 -30.9116 
6.79005 74.7707 -32.0174 
5.28117 70.3724 -33.1232 
3.77229 65.9742 -34.229 
2.26341 61.5759 -35.3348 
0.754533 57.1776 -36.4406 
-0.754346 52.7793 -37.5464 
-2.26323 48.3811 -38.6523 
-3.7721 43.9828 -39.7581 
-5.28098 39.5845 -40.8639 
-6.78986 35.1862 -41.9697 
-8.29874 30.7879 -43.0755 
-9.80762 26.3897 -44.1813 
-11.3165 21.9914 -45.2871 
-12.8254 17.5931 -46.3929 
-14.3343 13.1948 -47.4987 
-15.8431 8.79656 -48.6045 
-17.352 4.39828 -49.7104 
-18.8609 0 -50.8162 
9.25674 79.1646 -32.2184 
7.7483 74.7665 -33.303 
6.23985 70.3685 -34.3876 
4.73141 65.9705 -35.4722 
3.22296 61.5724 -36.5568 
1.71452 57.1744 -37.6414 
0.206071 52.7764 -38.726 
-1.30237 48.3783 -39.8105 
-2.81082 43.9803 -40.8951 
-4.31926 39.5823 -41.9797 
-5.82771 35.1843 -43.0643 
-7.33615 30.7862 -44.1489 
-8.8446 26.3882 -45.2335 
-10.353 21.9902 -46.3181 
-11.8615 17.5921 -47.4027 
-13.3699 13.1941 -48.4872 
-14.8784 8.79606 -49.5718 
-16.3868 4.39803 -50.6564 
-17.8953 0 -51.741 
9.13575 78.738 -30.3104 
7.66177 74.3637 -31.4249 
6.18779 69.9894 -32.5394 
4.71381 65.615 -33.6539 
3.23983 61.2407 -34.7684 
1.76586 56.8664 -35.8829 
0.291876 52.492 -36.9974 
-1.1821 48.1177 -38.1119 
-2.65608 43.7434 -39.2265 
-4.13006 39.369 -40.341 
-5.60404 34.9947 -41.4555 
-7.07802 30.6204 -42.57 
-8.552 26.246 -43.6845 
-10.026 21.8717 -44.799 
-11.5 17.4973 -45.9135 
-12.9739 13.123 -47.028 
-14.4479 8.74867 -48.1426 
-15.9219 4.37434 -49.2571 
-17.3959 0 -50.3716 
9.27453 79.2521 -32.6008 
7.75944 74.8492 -33.6335 
6.24435 70.4463 -34.6663 
4.72925 66.0434 -35.699 
3.21416 61.6405 -36.7317 
1.69907 57.2376 -37.7644 
0.183974 52.8347 -38.7972 
-1.33112 48.4318 -39.8299 
-2.84621 44.0289 -40.8626 
-4.36131 39.626 -41.8953 
-5.8764 35.2231 -42.928 
-7.39149 30.8203 -43.9608 
-8.90659 26.4174 -44.9935 
-10.4217 22.0145 -46.0262 
-11.9368 17.6116 -47.0589 
-13.4519 13.2087 -48.0917 
-14.967 8.80579 -49.1244 
-16.4821 4.40289 -50.1571 
-17.9971 0 -51.1898 
7.93375 78.9509 -29.5751 
6.42646 74.5648 -30.728 
4.91916 70.1786 -31.881 
3.41186 65.7925 -33.0339 
1.90457 61.4063 -34.1868 
0.397272 57.0201 -35.3398 
-1.11002 52.634 -36.4927 
-2.61732 48.2478 -37.6457 
-4.12462 43.8616 -38.7986 
-5.63191 39.4755 -39.9515 
-7.13921 35.0893 -41.1045 
-8.6465 30.7031 -42.2574 
-10.1538 26.317 -43.4104 
-11.6611 21.9308 -44.5633 
-13.1684 17.5447 -45.7162 
-14.6757 13.1585 -46.8692 
-16.183 8.77233 -48.0221 
-17.6903 4.38616 -49.1751 
-19.1976 0 -50.328 
8.89595 78.2471 -28.1535 
7.42299 73.9 -29.3018 
5.95003 69.553 -30.4501 
4.47708 65.2059 -31.5984 
3.00412 60.8588 -32.7466 
1.53116 56.5118 -33.8949 
0.058199 52.1647 -35.0432 
-1.41476 47.8177 -36.1914 
-2.88772 43.4706 -37.3397 
-4.36068 39.1235 -38.488 
-5.83364 34.7765 -39.6363 
-7.30659 30.4294 -40.7845 
-8.77955 26.0824 -41.9328 
-10.2525 21.7353 -43.0811 
-11.7255 17.3882 -44.2294 
-13.1984 13.0412 -45.3776 
-14.6714 8.69412 -46.5259 
-16.1443 4.34706 -47.6742 
-17.6173 0 -48.8225 
7.07131 78.2935 -26.1676 
5.56447 73.9439 -27.4466 
4.05763 69.5943 -28.7257 
2.55079 65.2446 -30.0048 
1.04395 60.895 -31.2838 
-0.462895 56.5453 -32.5629 
-1.96974 52.1957 -33.842 
-3.47658 47.8461 -35.121 
-4.98342 43.4964 -36.4001 
-6.49026 39.1468 -37.6792 
-7.9971 34.7971 -38.9582 
-9.50394 30.4475 -40.2373 
-11.0108 26.0978 -41.5163 
-12.5176 21.7482 -42.7954 
-14.0245 17.3986 -44.0745 
-15.5313 13.0489 -45.3535 
-17.0381 8.69928 -46.6326 
-18.545 4.34964 -47.9117 
-20.0518 0 -49.1907 
7.80389 78.3491 -27.2252 
6.31562 73.9963 -28.4807 
4.82735 69.6436 -29.7363 
3.33909 65.2909 -30.9919 
1.85082 60.9382 -32.2475 
0.362552 56.5854 -33.5031 
-1.12572 52.2327 -34.7587 
-2.61398 47.88 -36.0143 
-4.10225 43.5273 -37.2698 
-5.59052 39.1745 -38.5254 
-7.07878 34.8218 -39.781 
-8.56705 30.4691 -41.0366 
-10.0553 26.1164 -42.2922 
-11.5436 21.7636 -43.5478 
-13.0319 17.4109 -44.8034 
-14.5201 13.0582 -46.0589 
-16.0084 8.70545 -47.3145 
-17.4967 4.35273 -48.5701 
-18.9849 0 -49.8257 
8.88914 78.2382 -28.1106 
7.42157 73.8916 -29.306 
5.95399 69.5451 -30.5015 
4.48641 65.1985 -31.6969 
3.01883 60.8519 -32.8924 
1.55126 56.5054 -34.0878 
0.0836789 52.1588 -35.2832 
-1.3839 47.8122 -36.4787 
-2.85148 43.4657 -37.6741 
-4.31905 39.1191 -38.8695 
-5.78663 34.7725 -40.065 
-7.25421 30.426 -41.2604 
-8.72179 26.0794 -42.4559 
-10.1894 21.7328 -43.6513 
-11.6569 17.3863 -44.8467 
-13.1245 13.0397 -46.0422 
-14.5921 8.69313 -47.2376 
-16.0597 4.34657 -48.433 
-17.5273 0 -49.6285 
8.87695 78.2286 -28.0632 
7.42121 73.8825 -29.3136 
5.96547 69.5365 -30.5641 
4.50974 65.1905 -31.8145 
3.054 60.8444 -33.065 
1.59826 56.4984 -34.3154 
0.142517 52.1524 -35.5659 
-1.31322 47.8064 -36.8163 
-2.76896 43.4603 -38.0668 
-4.2247 39.1143 -39.3172 
-5.68044 34.7683 -40.5677 
-7.13618 30.4222 -41.8181 
-8.59192 26.0762 -43.0686 
-10.0477 21.7302 -44.319 
-11.5034 17.3841 -45.5695 
-12.9591 13.0381 -46.8199 
-14.4149 8.69206 -48.0704 
-15.8706 4.34603 -49.3208 
-17.3264 0 -50.5713 
-8.13414 80.6899 -17.0805 
-9.83464 76.6554 -19.1212 
-11.5351 72.6209 -21.1619 
-13.2356 68.5864 -23.2026 
-14.9361 64.5519 -25.2434 
-16.6366 60.5174 -27.2841 
-18.3371 56.4829 -29.3248 
-20.0376 52.4484 -31.3655 
-21.7381 48.4139 -33.4062 
-23.4386 44.3794 -35.447 
-25.1391 40.345 -37.4877 
-26.8397 36.3105 -39.5284 
-28.5402 32.276 -41.5691 
-30.2407 28.2415 -43.6098 
-31.9412 24.207 -45.6506 
-33.6417 20.1725 -47.6913 
-35.3422 16.138 -49.732 
-37.0427 12.1035 -51.7727 
-38.7432 8.06899 -53.8134 
-40.4437 4.0345 -55.8542 
-42.1442 0 -57.8949 
-8.39491 80.8723 -17.2068 
-10.196 76.8287 -19.2998 
-11.997 72.7851 -21.3928 
-13.7981 68.7415 -23.4858 
-15.5991 64.6979 -25.5789 
-17.4001 60.6543 -27.6719 
-19.2012 56.6106 -29.7649 
-21.0022 52.567 -31.8579 
-22.8033 48.5234 -33.951 
-24.6043 44.4798 -36.044 
-26.4054 40.4362 -38.137 
-28.2064 36.3926 -40.23 
-30.0075 32.3489 -42.3231 
-31.8085 28.3053 -44.4161 
-33.6096 24.2617 -46.5091 
-35.4106 20.2181 -48.6021 
-37.2116 16.1745 -50.6952 
-39.0127 12.1309 -52.7882 
-40.8137 8.08723 -54.8812 
-42.6148 4.04362 -56.9742 
-44.4158 0 -59.0673 
-9.56313 81.9457 -18.2363 
-11.4985 77.8484 -20.3305 
-13.4338 73.7511 -22.4246 
-15.3691 69.6538 -24.5188 
-17.3045 65.5565 -26.613 
-19.2398 61.4592 -28.7071 
-21.1751 57.362 -30.8013 
-23.1104 53.2647 -32.8954 
-25.0458 49.1674 -34.9896 
-26.9811 45.0701 -37.0837 
-28.9164 40.9728 -39.1779 
-30.8518 36.8755 -41.272 
-32.7871 32.7783 -43.3662 
-34.7224 28.681 -45.4603 
-36.6578 24.5837 -47.5545 
-38.5931 20.4864 -49.6486 
-40.5284 16.3891 -51.7428 
-42.4638 12.2918 -53.8369 
-44.3991 8.19457 -55.9311 
-46.3344 4.09728 -58.0252 
-48.2697 0 -60.1194 
0.55287 76.32 -14.394 
-0.706662 72.08 -16.1657 
-1.9662 67.84 -17.9375 
-3.22573 63.6 -19.7093 
-4.48526 59.36 -21.481 
-5.74479 55.12 -23.2528 
-7.00433 50.88 -25.0245 
-8.26386 46.64 -26.7963 
-9.52339 42.4 -28.5681 
-10.7829 38.16 -30.3398 
-12.0425 33.92 -32.1116 
-13.302 29.68 -33.8833 
-14.5615 25.44 -35.6551 
-15.8211 21.2 -37.4269 
-17.0806 16.96 -39.1986 
-18.3401 12.72 -40.9704 
-19.5997 8.48001 -42.7421 
-20.8592 4.24 -44.5139 
-22.1187 0 -46.2857 
1.17386 76.1343 -14.3853 
-0.0646704 71.9046 -16.1312 
-1.3032 67.6749 -17.8772 
-2.54172 63.4453 -19.6232 
-3.78025 59.2156 -21.3692 
-5.01878 54.9859 -23.1151 
-6.2573 50.7562 -24.8611 
-7.49583 46.5265 -26.6071 
-8.73436 42.2968 -28.3531 
-9.97288 38.0672 -30.099 
-11.2114 33.8375 -31.845 
-12.4499 29.6078 -33.591 
-13.6885 25.3781 -35.337 
-14.927 21.1484 -37.0829 
-16.1655 16.9187 -38.8289 
-17.404 12.6891 -40.5749 
-18.6426 8.45937 -42.3209 
-19.8811 4.22968 -44.0668 
-21.1196 0 -45.8128 
0.836279 76.0812 -14.0219 
-0.40343 71.8545 -15.7907 
-1.64314 67.6277 -17.5595 
-2.88285 63.401 -19.3283 
-4.12256 59.1743 -21.0971 
-5.36227 54.9475 -22.8659 
-6.60198 50.7208 -24.6347 
-7.84168 46.4941 -26.4035 
-9.08139 42.2673 -28.1723 
-10.3211 38.0406 -29.9411 
-11.5608 33.8139 -31.7099 
-12.8005 29.5871 -33.4787 
-14.0402 25.3604 -35.2475 
-15.2799 21.1337 -37.0163 
-16.5196 16.9069 -38.7851 
-17.7594 12.6802 -40.554 
-18.9991 8.45347 -42.3228 
-20.2388 4.22673 -44.0916 
-21.4785 0 -45.8604 
-0.291262 76.32 -13.8021 
-1.5533 72.08 -15.5976 
-2.81534 67.84 -17.3931 
-4.07738 63.6 -19.1887 
-5.33942 59.36 -20.9842 
-6.60145 55.12 -22.7797 
-7.86349 50.88 -24.5752 
-9.12553 46.64 -26.3708 
-10.3876 42.4 -28.1663 
-11.6496 38.16 -29.9618 
-12.9116 33.92 -31.7573 
-14.1737 29.68 -33.5528 
-15.4357 25.44 -35.3484 
-16.6978 21.2 -37.1439 
-17.9598 16.96 -38.9394 
-19.2218 12.72 -40.7349 
-20.4839 8.48001 -42.5305 
-21.7459 4.24 -44.326 
-23.008 0 -46.1215 
-6.65186 79.5588 -16.0368 
-8.28969 75.3715 -18.1157 
-9.92752 71.1842 -20.1946 
-11.5653 66.9969 -22.2735 
-13.2032 62.8096 -24.3524 
-14.841 58.6223 -26.4312 
-16.4788 54.435 -28.5101 
-18.1167 50.2477 -30.589 
-19.7545 46.0604 -32.6679 
-21.3923 41.8731 -34.7468 
-23.0302 37.6857 -36.8256 
-24.668 33.4984 -38.9045 
-26.3058 29.3111 -40.9834 
-27.9436 25.1238 -43.0623 
-29.5815 20.9365 -45.1412 
-31.2193 16.7492 -47.22 
-32.8571 12.5619 -49.2989 
-34.495 8.37461 -51.3778 
-36.1328 4.18731 -53.4567 
-37.7706 0 -55.5356 
-4.9935 78.5061 -15.2152 
-6.46959 74.3742 -17.2648 
-7.94567 70.2423 -19.3145 
-9.42175 66.1104 -21.3642 
-10.8978 61.9785 -23.4138 
-12.3739 57.8466 -25.4635 
-13.85 53.7147 -27.5131 
-15.3261 49.5828 -29.5628 
-16.8022 45.4509 -31.6124 
-18.2783 41.319 -33.6621 
-19.7543 37.1871 -35.7117 
-21.2304 33.0552 -37.7614 
-22.7065 28.9233 -39.811 
-24.1826 24.7914 -41.8607 
-25.6587 20.6595 -43.9103 
-27.1348 16.5276 -45.96 
-28.6109 12.3957 -48.0096 
-30.0869 8.2638 -50.0593 
-31.563 4.1319 -52.1089 
-33.0391 0 -54.1586 
-6.05196 79.4789 -16.3484 
-7.68176 75.2958 -18.4113 
-9.31155 71.1127 -20.4743 
-10.9413 66.9296 -22.5372 
-12.5711 62.7465 -24.6001 
-14.2009 58.5634 -26.663 
-15.8307 54.3803 -28.7259 
-17.4605 50.1972 -30.7888 
-19.0903 46.0141 -32.8517 
-20.7201 41.831 -34.9146 
-22.3499 37.6479 -36.9775 
-23.9797 33.4648 -39.0404 
-25.6095 29.2817 -41.1033 
-27.2393 25.0986 -43.1662 
-28.8691 20.9155 -45.2291 
-30.4989 16.7324 -47.292 
-32.1286 12.5493 -49.3549 
-33.7584 8.3662 -51.4179 
-35.3882 4.1831 -53.4808 
-37.018 0 -55.5437 
-4.71632 78.7321 -15.8601 
-6.19138 74.5883 -17.8598 
-7.66643 70.4445 -19.8596 
-9.14149 66.3007 -21.8593 
-10.6165 62.1569 -23.859 
-12.0916 58.0131 -25.8588 
-13.5667 53.8693 -27.8585 
-15.0417 49.7255 -29.8583 
-16.5168 45.5817 -31.858 
-17.9918 41.4379 -33.8577 
-19.4669 37.2941 -35.8575 
-20.9419 33.1504 -37.8572 
-22.417 29.0066 -39.857 
-23.8921 24.8628 -41.8567 
-25.3671 20.719 -43.8564 
-26.8422 16.5752 -45.8562 
-28.3172 12.4314 -47.8559 
-29.7923 8.28759 -49.8557 
-31.2673 4.14379 -51.8554 
-32.7424 0 -53.8551 
-2.69027 78.0142 -15.8529 
-4.199 73.6801 -17.7906 
-5.70772 69.346 -19.7284 
-7.21645 65.0119 -21.6662 
-8.72517 60.6777 -23.6039 
-10.2339 56.3436 -25.5417 
-11.7426 52.0095 -27.4795 
-13.2513 47.6754 -29.4173 
-14.7601 43.3412 -31.355 
-16.2688 39.0071 -33.2928 
-17.7775 34.673 -35.2306 
-19.2862 30.3389 -37.1683 
-20.795 26.0047 -39.1061 
-22.3037 21.6706 -41.0439 
-23.8124 17.3365 -42.9816 
-25.3211 13.0024 -44.9194 
-26.8299 8.66825 -46.8572 
-28.3386 4.33412 -48.795 
-29.8473 0 -50.7327 
-3.73743 78.6006 -16.332 
-5.22012 74.4637 -18.2308 
-6.70282 70.3268 -20.1295 
-8.18552 66.19 -22.0283 
-9.66822 62.0531 -23.927 
-11.1509 57.9162 -25.8257 
-12.6336 53.7794 -27.7245 
-14.1163 49.6425 -29.6232 
-15.599 45.5056 -31.522 
-17.0817 41.3687 -33.4207 
-18.5644 37.2319 -35.3195 
-20.0471 33.095 -37.2182 
-21.5298 28.9581 -39.117 
-23.0125 24.8212 -41.0157 
-24.4952 20.6844 -42.9145 
-25.9779 16.5475 -44.8132 
-27.4606 12.4106 -46.712 
-28.9433 8.27375 -48.6107 
-30.426 4.13687 -50.5095 
-31.9087 0 -52.4082 
-4.09596 78.355 -15.5297 
-5.51855 74.231 -17.468 
-6.94114 70.1071 -19.4063 
-8.36373 65.9831 -21.3446 
-9.78632 61.8592 -23.2829 
-11.2089 57.7352 -25.2212 
-12.6315 53.6113 -27.1595 
-14.0541 49.4874 -29.0978 
-15.4767 45.3634 -31.036 
-16.8993 41.2395 -32.9743 
-18.3219 37.1155 -34.9126 
-19.7445 32.9916 -36.8509 
-21.167 28.8676 -38.7892 
-22.5896 24.7437 -40.7275 
-24.0122 20.6197 -42.6658 
-25.4348 16.4958 -44.6041 
-26.8574 12.3718 -46.5424 
-28.28 8.24789 -48.4807 
-29.7026 4.12395 -50.419 
-31.1252 0 -52.3573 
-3.10875 77.7478 -14.9472 
-4.57806 73.4285 -16.9293 
-6.04736 69.1092 -18.9115 
-7.51667 64.7898 -20.8937 
-8.98598 60.4705 -22.8758 
-10.4553 56.1512 -24.858 
-11.9246 51.8319 -26.8402 
-13.3939 47.5126 -28.8223 
-14.8632 43.1932 -30.8045 
-16.3325 38.8739 -32.7867 
-17.8018 34.5546 -34.7688 
-19.2711 30.2353 -36.751 
-20.7405 25.9159 -38.7331 
-22.2098 21.5966 -40.7153 
-23.6791 17.2773 -42.6975 
-25.1484 12.958 -44.6796 
-26.6177 8.63865 -46.6618 
-28.087 4.31932 -48.644 
-29.5563 0 -50.6261 
-4.8148 78.3421 -14.9909 
-6.1842 74.2188 -16.9523 
-7.55361 70.0956 -18.9138 
-8.92302 65.9723 -20.8752 
-10.2924 61.849 -22.8367 
-11.6618 57.7258 -24.7981 
-13.0312 53.6025 -26.7596 
-14.4007 49.4792 -28.721 
-15.7701 45.356 -30.6825 
-17.1395 41.2327 -32.6439 
-18.5089 37.1094 -34.6054 
-19.8783 32.9861 -36.5668 
-21.2477 28.8629 -38.5283 
-22.6171 24.7396 -40.4897 
-23.9865 20.6163 -42.4512 
-25.3559 16.4931 -44.4126 
-26.7253 12.3698 -46.3741 
-28.0947 8.24654 -48.3355 
-29.4641 4.12327 -50.297 
-30.8336 0 -52.2584 
2.06072 76.8726 -16.9124 
0.707721 72.6019 -18.527 
-0.645278 68.3312 -20.1416 
-1.99828 64.0605 -21.7561 
-3.35128 59.7898 -23.3707 
-4.70428 55.5191 -24.9853 
-6.05728 51.2484 -26.5999 
-7.41027 46.9777 -28.2145 
-8.76327 42.707 -29.8291 
-10.1163 38.4363 -31.4437 
-11.4693 34.1656 -33.0583 
-12.8223 29.8949 -34.6729 
-14.1753 25.6242 -36.2875 
-15.5283 21.3535 -37.9021 
-16.8813 17.0828 -39.5166 
-18.2343 12.8121 -41.1312 
-19.5873 8.54141 -42.7458 
-20.9403 4.2707 -44.3604 
-22.2933 0 -45.975 
1.56747 76.6971 -16.0639 
0.265305 72.4361 -17.7517 
-1.03686 68.1752 -19.4396 
-2.33902 63.9142 -21.1275 
-3.64118 59.6533 -22.8153 
-4.94334 55.3923 -24.5032 
-6.24551 51.1314 -26.191 
-7.54767 46.8704 -27.8789 
-8.84983 42.6095 -29.5668 
-10.152 38.3485 -31.2546 
-11.4542 34.0876 -32.9425 
-12.7563 29.8266 -34.6304 
-14.0585 25.5657 -36.3182 
-15.3606 21.3047 -38.0061 
-16.6628 17.0438 -39.6939 
-17.965 12.7828 -41.3818 
-19.2671 8.5219 -43.0697 
-20.5693 4.26095 -44.7575 
-21.8715 0 -46.4454 
2.88696 76.4229 -16.3863 
1.51448 71.9274 -18.0815 
0.142003 67.4319 -19.7768 
-1.23047 62.9365 -21.472 
-2.60295 58.441 -23.1672 
-3.97543 53.9456 -24.8624 
-5.34791 49.4501 -26.5576 
-6.72039 44.9546 -28.2528 
-8.09286 40.4592 -29.948 
-9.46534 35.9637 -31.6432 
-10.8378 31.4682 -33.3384 
-12.2103 26.9728 -35.0336 
-13.5828 22.4773 -36.7288 
-14.9553 17.9819 -38.424 
-16.3277 13.4864 -40.1192 
-17.7002 8.99093 -41.8144 
-19.0727 4.49546 -43.5096 
-20.4452 0 -45.2048 
4.48387 77.2842 -20.2234 
3.06377 72.9906 -21.6937 
1.64368 68.6971 -23.1641 
0.223586 64.4035 -24.6345 
-1.19651 60.1099 -26.1049 
-2.6166 55.8164 -27.5753 
-4.03669 51.5228 -29.0457 
-5.45679 47.2292 -30.516 
-6.87688 42.9357 -31.9864 
-8.29698 38.6421 -33.4568 
-9.71707 34.3485 -34.9272 
-11.1372 30.055 -36.3976 
-12.5573 25.7614 -37.868 
-13.9774 21.4678 -39.3384 
-15.3974 17.1743 -40.8087 
-16.8175 12.8807 -42.2791 
-18.2376 8.58713 -43.7495 
-19.6577 4.29357 -45.2199 
-21.0778 0 -46.6903 
3.91811 77.1837 -19.4026 
2.52447 72.8957 -20.9115 
1.13083 68.6077 -22.4205 
-0.262811 64.3197 -23.9294 
-1.65645 60.0317 -25.4383 
-3.05009 55.7438 -26.9472 
-4.44373 51.4558 -28.4561 
-5.83737 47.1678 -29.965 
-7.23102 42.8798 -31.4739 
-8.62466 38.5918 -32.9828 
-10.0183 34.3039 -34.4917 
-11.4119 30.0159 -36.0006 
-12.8056 25.7279 -37.5095 
-14.1992 21.4399 -39.0184 
-15.5929 17.1519 -40.5273 
-16.9865 12.8639 -42.0362 
-18.3801 8.57596 -43.5451 
-19.7738 4.28798 -45.054 
-21.1674 0 -46.5629 
4.91953 76.7762 -19.1583 
3.46716 72.26 -20.725 
2.01479 67.7437 -22.2918 
0.562415 63.2275 -23.8585 
-0.889957 58.7112 -25.4253 
-2.34233 54.195 -26.9921 
-3.7947 49.6787 -28.5588 
-5.24707 45.1625 -30.1256 
-6.69945 40.6462 -31.6923 
-8.15182 36.13 -33.2591 
-9.60419 31.6137 -34.8259 
-11.0566 27.0975 -36.3926 
-12.5089 22.5812 -37.9594 
-13.9613 18.065 -39.5261 
-15.4137 13.5487 -41.0929 
-16.8661 9.0325 -42.6596 
-18.3184 4.51625 -44.2264 
-19.7708 0 -45.7932 
5.54726 77.3852 -21.5758 
4.12482 73.086 -22.9928 
2.70237 68.7869 -24.4097 
1.27993 64.4877 -25.8267 
-0.142514 60.1885 -27.2437 
-1.56496 55.8893 -28.6606 
-2.9874 51.5901 -30.0776 
-4.40985 47.291 -31.4945 
-5.83229 42.9918 -32.9115 
-7.25474 38.6926 -34.3285 
-8.67718 34.3934 -35.7454 
-10.0996 30.0943 -37.1624 
-11.5221 25.7951 -38.5793 
-12.9445 21.4959 -39.9963 
-14.367 17.1967 -41.4133 
-15.7894 12.8975 -42.8302 
-17.2118 8.59836 -44.2472 
-18.6343 4.29918 -45.6642 
-20.0567 0 -47.0811 
5.72033 77.6443 -22.5484 
4.26003 73.3308 -23.9332 
2.79972 69.0172 -25.3181 
1.33942 64.7036 -26.703 
-0.120878 60.39 -28.0878 
-1.58118 56.0765 -29.4727 
-3.04148 51.7629 -30.8575 
-4.50178 47.4493 -32.2424 
-5.96208 43.1357 -33.6272 
-7.42238 38.8222 -35.0121 
-8.88269 34.5086 -36.397 
-10.343 30.195 -37.7818 
-11.8033 25.8814 -39.1667 
-13.2636 21.5679 -40.5515 
-14.7239 17.2543 -41.9364 
-16.1842 12.9407 -43.3213 
-17.6445 8.62715 -44.7061 
-19.1048 4.31357 -46.091 
-20.5651 0 -47.4758 
7.96404 77.6033 -24.877 
6.51643 73.292 -26.155 
5.06882 68.9807 -27.4331 
3.62121 64.6695 -28.7111 
2.1736 60.3582 -29.9891 
0.725991 56.0469 -31.2672 
-0.721619 51.7356 -32.5452 
-2.16923 47.4243 -33.8233 
-3.61684 43.113 -35.1013 
-5.06445 38.8017 -36.3793 
-6.51206 34.4904 -37.6574 
-7.95967 30.1791 -38.9354 
-9.40728 25.8678 -40.2135 
-10.8549 21.5565 -41.4915 
-12.3025 17.2452 -42.7696 
-13.7501 12.9339 -44.0476 
-15.1977 8.62259 -45.3256 
-16.6453 4.3113 -46.6037 
-18.0929 0 -47.8817 
7.61007 77.4619 -23.9905 
6.14239 73.1585 -25.3083 
4.6747 68.8551 -26.626 
3.20702 64.5516 -27.9437 
1.73934 60.2482 -29.2615 
0.271653 55.9447 -30.5792 
-1.19603 51.6413 -31.897 
-2.66371 47.3379 -33.2147 
-4.1314 43.0344 -34.5325 
-5.59908 38.731 -35.8502 
-7.06676 34.4275 -37.1679 
-8.53445 30.1241 -38.4857 
-10.0021 25.8206 -39.8034 
-11.4698 21.5172 -41.1212 
-12.9375 17.2138 -42.4389 
-14.4052 12.9103 -43.7566 
-15.8729 8.60688 -45.0744 
-17.3405 4.30344 -46.3921 
-18.8082 0 -47.7099 
8.00882 78.0579 -26.4613 
6.5671 73.7213 -27.7241 
5.12539 69.3848 -28.9869 
3.68367 65.0482 -30.2496 
2.24196 60.7117 -31.5124 
0.800239 56.3751 -32.7752 
-0.641477 52.0386 -34.038 
-2.08319 47.702 -35.3008 
-3.52491 43.3655 -36.5636 
-4.96662 39.0289 -37.8264 
-6.40834 34.6924 -39.0892 
-7.85006 30.3558 -40.3519 
-9.29177 26.0193 -41.6147 
-10.7335 21.6827 -42.8775 
-12.1752 17.3462 -44.1403 
-13.6169 13.0096 -45.4031 
-15.0586 8.6731 -46.6659 
-16.5004 4.33655 -47.9287 
-17.9421 0 -49.1915 
8.328 77.8149 -25.9737 
6.86968 73.2375 -27.3005 
5.41136 68.6602 -28.6272 
3.95304 64.0828 -29.954 
2.49472 59.5055 -31.2807 
1.0364 54.9281 -32.6075 
-0.421925 50.3508 -33.9342 
-1.88025 45.7735 -35.261 
-3.33857 41.1961 -36.5877 
-4.79689 36.6188 -37.9145 
-6.25521 32.0414 -39.2412 
-7.71353 27.4641 -40.568 
-9.17185 22.8867 -41.8947 
-10.6302 18.3094 -43.2215 
-12.0885 13.732 -44.5482 
-13.5468 9.15469 -45.875 
-15.0051 4.57735 -47.2018 
-16.4635 0 -48.5285 
6.99699 77.2742 -22.7439 
5.54331 72.9812 -24.1001 
4.08963 68.6882 -25.4563 
2.63595 64.3951 -26.8125 
1.18226 60.1021 -28.1687 
-0.27142 55.8091 -29.5249 
-1.7251 51.5161 -30.8811 
-3.17879 47.2231 -32.2373 
-4.63247 42.9301 -33.5935 
-6.08615 38.6371 -34.9497 
-7.53983 34.3441 -36.3059 
-8.99352 30.0511 -37.6621 
-10.4472 25.7581 -39.0183 
-11.9009 21.465 -40.3745 
-13.3546 17.172 -41.7307 
-14.8082 12.879 -43.0869 
-16.2619 8.58602 -44.4431 
-17.7156 4.29301 -45.7993 
-19.1693 0 -47.1555 
5.41079 76.9056 -19.9878 
3.94406 72.3817 -21.5047 
2.47733 67.8579 -23.0216 
1.01059 63.334 -24.5384 
-0.45614 58.8102 -26.0553 
-1.92287 54.2863 -27.5721 
-3.38961 49.7624 -29.089 
-4.85634 45.2386 -30.6058 
-6.32307 40.7147 -32.1227 
-7.78981 36.1909 -33.6396 
-9.25654 31.667 -35.1564 
-10.7233 27.1431 -36.6733 
-12.19 22.6193 -38.1901 
-13.6567 18.0954 -39.707 
-15.1235 13.5716 -41.2238 
-16.5902 9.04772 -42.7407 
-18.0569 4.52386 -44.2576 
-19.5237 0 -45.7744 
6.28483 77.0625 -21.3298 
4.79797 72.5294 -22.8188 
3.3111 67.9963 -24.3078 
1.82423 63.4632 -25.7968 
0.337368 58.9302 -27.2857 
-1.1495 54.3971 -28.7747 
-2.63636 49.864 -30.2637 
-4.12323 45.3309 -31.7527 
-5.6101 40.7978 -33.2416 
-7.09696 36.2647 -34.7306 
-8.58383 31.7316 -36.2196 
-10.0707 27.1985 -37.7086 
-11.5576 22.6654 -39.1975 
-13.0444 18.1324 -40.6865 
-14.5313 13.5993 -42.1755 
-16.0182 9.06618 -43.6645 
-17.505 4.53309 -45.1534 
-18.9919 0 -46.6424 
6.58992 77.1477 -21.8974 
5.08594 72.6096 -23.3546 
3.58195 68.0715 -24.8118 
2.07797 63.5334 -26.2689 
0.57398 58.9953 -27.7261 
-0.930006 54.4572 -29.1832 
-2.43399 49.9191 -30.6404 
-3.93798 45.381 -32.0975 
-5.44196 40.8429 -33.5547 
-6.94595 36.3048 -35.0119 
-8.44994 31.7667 -36.469 
-9.95392 27.2286 -37.9262 
-11.4579 22.6905 -39.3833 
-12.9619 18.1524 -40.8405 
-14.4659 13.6143 -42.2977 
-15.9699 9.0762 -43.7548 
-17.4739 4.5381 -45.212 
-18.9778 0 -46.6691 
3.56004 76.4811 -17.1249 
2.14591 71.9822 -18.7746 
0.731779 67.4834 -20.4243 
-0.682352 62.9845 -22.0739 
-2.09648 58.4856 -23.7236 
-3.51061 53.9867 -25.3732 
-4.92474 49.4878 -27.0229 
-6.33887 44.9889 -28.6726 
-7.753 40.49 -30.3222 
-9.16714 35.9911 -31.9719 
-10.5813 31.4922 -33.6216 
-11.9954 26.9933 -35.2712 
-13.4095 22.4945 -36.9209 
-14.8237 17.9956 -38.5705 
-16.2378 13.4967 -40.2202 
-17.6519 8.99778 -41.8699 
-19.066 4.49889 -43.5195 
-20.4802 0 -45.1692 
2.93238 77.0666 -18.1781 
1.54285 72.7851 -19.7427 
0.153317 68.5036 -21.3073 
-1.23622 64.2222 -22.8719 
-2.62575 59.9407 -24.4365 
-4.01528 55.6592 -26.0011 
-5.40482 51.3777 -27.5657 
-6.79435 47.0963 -29.1303 
-8.18389 42.8148 -30.6949 
-9.57342 38.5333 -32.2595 
-10.963 34.2518 -33.824 
-12.3525 29.9703 -35.3886 
-13.742 25.6889 -36.9532 
-15.1316 21.4074 -38.5178 
-16.5211 17.1259 -40.0824 
-17.9106 12.8444 -41.647 
-19.3002 8.56296 -43.2116 
-20.6897 4.28148 -44.7762 
-22.0792 0 -46.3408 
4.15804 76.6712 -18.1589 
2.72176 72.1611 -19.7643 
1.28547 67.6511 -21.3697 
-0.150809 63.141 -22.9751 
-1.58709 58.6309 -24.5805 
-3.02338 54.1209 -26.1859 
-4.45966 49.6108 -27.7913 
-5.89594 45.1007 -29.3968 
-7.33223 40.5906 -31.0022 
-8.76851 36.0806 -32.6076 
-10.2048 31.5705 -34.213 
-11.6411 27.0604 -35.8184 
-13.0774 22.5504 -37.4238 
-14.5136 18.0403 -39.0292 
-15.9499 13.5302 -40.6347 
-17.3862 9.02014 -42.2401 
-18.8225 4.51007 -43.8455 
-20.2588 0 -45.4509 
0.773699 77.3469 -17.064 
-0.644085 73.0499 -18.7777 
-2.06187 68.7528 -20.4914 
-3.47965 64.4558 -22.2051 
-4.89744 60.1587 -23.9188 
-6.31522 55.8617 -25.6325 
-7.73301 51.5646 -27.3462 
-9.15079 47.2676 -29.0599 
-10.5686 42.9705 -30.7736 
-11.9864 38.6735 -32.4873 
-13.4041 34.3764 -34.201 
-14.8219 30.0794 -35.9147 
-16.2397 25.7823 -37.6284 
-17.6575 21.4853 -39.3421 
-19.0753 17.1882 -41.0558 
-20.4931 12.8912 -42.7695 
-21.9109 8.5941 -44.4832 
-23.3286 4.29705 -46.1969 
-24.7464 0 -47.9106 
-6.65721 79.5638 -16.0427 
-8.32288 75.3763 -18.1764 
-9.98856 71.1887 -20.3101 
-11.6542 67.0011 -22.4437 
-13.3199 62.8136 -24.5774 
-14.9856 58.626 -26.711 
-16.6512 54.4384 -28.8447 
-18.3169 50.2508 -30.9783 
-19.9826 46.0633 -33.112 
-21.6483 41.8757 -35.2456 
-23.3139 37.6881 -37.3793 
-24.9796 33.5006 -39.5129 
-26.6453 29.313 -41.6466 
-28.311 25.1254 -43.7803 
-29.9766 20.9379 -45.9139 
-31.6423 16.7503 -48.0476 
-33.308 12.5627 -50.1812 
-34.9736 8.37514 -52.3149 
-36.6393 4.18757 -54.4485 
-38.305 0 -56.5822 
-6.69514 79.5926 -16.0687 
-8.37525 75.4036 -18.1774 
-10.0554 71.2145 -20.2861 
-11.7355 67.0254 -22.3948 
-13.4156 62.8363 -24.5035 
-15.0957 58.6472 -26.6123 
-16.7758 54.4581 -28.721 
-18.4559 50.269 -30.8297 
-20.136 46.0799 -32.9384 
-21.8161 41.8909 -35.0471 
-23.4962 37.7018 -37.1558 
-25.1763 33.5127 -39.2645 
-26.8564 29.3236 -41.3733 
-28.5365 25.1345 -43.482 
-30.2167 20.9454 -45.5907 
-31.8968 16.7563 -47.6994 
-33.5769 12.5673 -49.8081 
-35.257 8.37817 -51.9168 
-36.9371 4.18909 -54.0255 
-38.6172 0 -56.1343 
-2.18079 77.3392 -14.7323 
-3.6195 73.0426 -16.6501 
-5.0582 68.746 -18.5678 
-6.4969 64.4494 -20.4856 
-7.93561 60.1527 -22.4033 
-9.37431 55.8561 -24.3211 
-10.813 51.5595 -26.2389 
-12.2517 47.2629 -28.1566 
-13.6904 42.9662 -30.0744 
-15.1291 38.6696 -31.9922 
-16.5678 34.373 -33.9099 
-18.0065 30.0764 -35.8277 
-19.4452 25.7797 -37.7455 
-20.8839 21.4831 -39.6632 
-22.3226 17.1865 -41.581 
-23.7613 12.8899 -43.4988 
-25.2 8.59325 -45.4165 
-26.6387 4.29662 -47.3343 
-28.0775 0 -49.2521 
-2.95033 77.2542 -13.9912 
-4.37589 72.9623 -15.9568 
-5.80145 68.6704 -17.9225 
-7.227 64.3785 -19.8881 
-8.65256 60.0866 -21.8538 
-10.0781 55.7947 -23.8194 
-11.5037 51.5028 -25.785 
-12.9292 47.2109 -27.7507 
-14.3548 42.919 -29.7163 
-15.7803 38.6271 -31.682 
-17.2059 34.3352 -33.6476 
-18.6315 30.0433 -35.6133 
-20.057 25.7514 -37.5789 
-21.4826 21.4595 -39.5445 
-22.9081 17.1676 -41.5102 
-24.3337 12.8757 -43.4758 
-25.7593 8.5838 -45.4415 
-27.1848 4.2919 -47.4071 
-28.6104 0 -49.3727 
-3.62461 77.7814 -14.6431 
-5.07898 73.4602 -16.6471 
-6.53336 69.139 -18.651 
-7.98773 64.8178 -20.6549 
-9.4421 60.4966 -22.6589 
-10.8965 56.1755 -24.6628 
-12.3509 51.8543 -26.6667 
-13.8052 47.5331 -28.6707 
-15.2596 43.2119 -30.6746 
-16.714 38.8907 -32.6785 
-18.1683 34.5695 -34.6824 
-19.6227 30.2483 -36.6864 
-21.0771 25.9271 -38.6903 
-22.5315 21.6059 -40.6942 
