-25.2054 13.8291 12.3033 
-25.2876 9.21943 12.165 
-25.3698 4.60971 12.0268 
-25.452 0 11.8886 
-24.6895 41.439 14.6391 
-24.7379 36.8347 14.519 
-24.7863 32.2303 14.3989 
-24.8347 27.626 14.2787 
-24.8831 23.0217 14.1586 
-24.9315 18.4173 14.0385 
-24.9799 13.813 13.9184 
-25.0282 9.20867 13.7983 
-25.0766 4.60433 13.6781 
-25.125 0 13.558 
-24.6632 41.4186 15.5133 
-24.6883 36.8166 15.424 
-24.7133 32.2145 15.3347 
-24.7384 27.6124 15.2454 
-24.7634 23.0103 15.1561 
-24.7885 18.4083 15.0668 
-24.8135 13.8062 14.9775 
-24.8386 9.20414 14.8882 
-24.8636 4.60207 14.7989 
-24.8886 0 14.7096 
-9.03799 40.3956 18.0171 
-9.69025 35.9072 18.2089 
-10.3425 31.4188 18.4008 
-10.9948 26.9304 18.5926 
-11.647 22.442 18.7845 
-12.2993 17.9536 18.9763 
-12.9515 13.4652 19.1681 
-13.6038 8.97681 19.36 
-14.2561 4.4884 19.5518 
-14.9083 0 19.7437 
-7.90366 40.2044 17.5461 
-8.59234 35.7373 17.7431 
-9.28103 31.2701 17.94 
-9.96972 26.803 18.137 
-10.6584 22.3358 18.3339 
-11.3471 17.8686 18.5309 
-12.0358 13.4015 18.7278 
-12.7245 8.93432 18.9248 
-13.4131 4.46716 19.1217 
-14.1018 0 19.3187 
-6.08238 39.8669 16.6206 
-6.84343 35.4372 16.8604 
-7.60449 31.0076 17.1001 
-8.36554 26.5779 17.3398 
-9.1266 22.1483 17.5796 
-9.88765 17.7186 17.8193 
-10.6487 13.289 18.059 
-11.4098 8.85931 18.2988 
-12.1708 4.42966 18.5385 
-12.9319 0 18.7782 
-4.95736 39.6344 15.9637 
-5.73449 35.2306 16.156 
-6.51162 30.8267 16.3484 
-7.28875 26.4229 16.5407 
-8.06589 22.0191 16.7331 
-8.84302 17.6153 16.9254 
-9.62015 13.2115 17.1178 
-10.3973 8.80764 17.3101 
-11.1744 4.40382 17.5024 
-11.9516 0 17.6948 
-6.58284 39.9658 16.888 
-7.30388 35.5251 17.1083 
-8.02492 31.0845 17.3286 
-8.74596 26.6438 17.5489 
-9.467 22.2032 17.7692 
-10.188 17.7626 17.9895 
-10.9091 13.3219 18.2098 
-11.6301 8.88128 18.4301 
-12.3512 4.44064 18.6504 
-13.0722 0 18.8707 
0.693749 37.8777 -6.32859 
-0.470975 33.143 -6.28639 
-1.6357 28.4083 -6.2442 
-2.80042 23.6736 -6.20201 
-3.96515 18.9389 -6.15981 
-5.12987 14.2041 -6.11762 
-6.29459 9.46943 -6.07542 
-7.45932 4.73471 -6.03323 
-8.62404 0 -5.99103 
-0.0172025 38.0305 -7.85301 
-1.18143 33.2767 -7.80084 
-2.34565 28.5229 -7.74867 
-3.50988 23.7691 -7.69649 
-4.6741 19.0152 -7.64432 
-5.83832 14.2614 -7.59214 
-7.00255 9.50762 -7.53997 
-8.16677 4.75381 -7.48779 
-9.331 0 -7.43562 
-0.795542 38.2159 -9.09086 
-1.93882 33.4389 -9.0508 
-3.08209 28.6619 -9.01074 
-4.22536 23.8849 -8.97068 
-5.36864 19.1079 -8.93062 
-6.51191 14.331 -8.89055 
-7.65518 9.55397 -8.85049 
-8.79846 4.77699 -8.81043 
-9.94173 0 -8.77037 
-2.33286 38.5755 -11.2363 
-3.44655 33.7536 -11.231 
-4.56024 28.9317 -11.2258 
-5.67393 24.1097 -11.2206 
-6.78762 19.2878 -11.2153 
-7.9013 14.4658 -11.2101 
-9.01499 9.64388 -11.2049 
-10.1287 4.82194 -11.1996 
-11.2424 0 -11.1944 
-3.98386 38.9648 -13.0547 
-5.0842 34.0942 -13.069 
-6.18454 29.2236 -13.0833 
-7.28488 24.353 -13.0977 
-8.38522 19.4824 -13.112 
-9.48556 14.6118 -13.1263 
-10.5859 9.74121 -13.1406 
-11.6862 4.87061 -13.155 
-12.7866 0 -13.1693 
-9.15146 40.1216 -16.9684 
-10.0425 35.6637 -17.0363 
-10.9334 31.2057 -17.1042 
-11.8244 26.7478 -17.1721 
-12.7154 22.2898 -17.24 
-13.6064 17.8318 -17.3079 
-14.4974 13.3739 -17.3758 
-15.3884 8.91592 -17.4437 
-16.2794 4.45796 -17.5116 
-17.1704 0 -17.5795 
-10.0217 40.2984 -17.4275 
-10.8904 35.8208 -17.505 
-11.7591 31.3432 -17.5826 
-12.6278 26.8656 -17.6601 
-13.4965 22.388 -17.7376 
-14.3652 17.9104 -17.8151 
-15.2339 13.4328 -17.8926 
-16.1026 8.95521 -17.9702 
-16.9714 4.4776 -18.0477 
-17.8401 0 -18.1252 
-11.68 40.6161 -17.4593 
-12.5071 36.1032 -17.555 
-13.3342 31.5903 -17.6508 
-14.1613 27.0774 -17.7465 
-14.9884 22.5645 -17.8423 
-15.8155 18.0516 -17.938 
-16.6426 13.5387 -18.0337 
-17.4697 9.02581 -18.1295 
-18.2968 4.51291 -18.2252 
-19.1239 0 -18.321 
-10.944 40.488 -17.8342 
-11.7906 35.9894 -17.9292 
-12.6372 31.4907 -18.0243 
-13.4838 26.992 -18.1193 
-14.3304 22.4934 -18.2143 
-15.177 17.9947 -18.3093 
-16.0236 13.496 -18.4043 
-16.8702 8.99734 -18.4993 
-17.7169 4.49867 -18.5943 
-18.5635 0 -18.6894 
-12.6165 40.8092 -18.3362 
-13.4533 36.2748 -18.4545 
-14.2901 31.7405 -18.5728 
-15.127 27.2061 -18.6911 
-15.9638 22.6718 -18.8093 
-16.8007 18.1374 -18.9276 
-17.6375 13.6031 -19.0459 
-18.4743 9.0687 -19.1642 
-19.3112 4.53435 -19.2825 
-20.148 0 -19.4008 
0.974848 37.8199 -5.57321 
-0.174191 33.0924 -5.47538 
-1.32323 28.3649 -5.37754 
-2.47227 23.6374 -5.27971 
-3.62131 18.9099 -5.18188 
-4.77035 14.1825 -5.08404 
-5.91939 9.45497 -4.98621 
-7.06843 4.72748 -4.88838 
-8.21747 0 -4.79054 
0.477027 37.9404 -5.6093 
-0.685411 33.1979 -5.51649 
-1.84785 28.4553 -5.42369 
-3.01029 23.7128 -5.33088 
-4.17273 18.9702 -5.23808 
-5.33516 14.2277 -5.14528 
-6.4976 9.48511 -5.05247 
-7.66004 4.74255 -4.95967 
-8.82248 0 -4.86686 
0.827607 37.8458 -6.01513 
-0.338358 33.1151 -5.94201 
-1.50432 28.3844 -5.86889 
-2.67029 23.6537 -5.79577 
-3.83625 18.9229 -5.72265 
-5.00222 14.1922 -5.64953 
-6.16818 9.46146 -5.57641 
-7.33414 4.73073 -5.50329 
-8.50011 0 -5.43016 
1.50366 37.7241 -4.0312 
0.372613 33.0086 -3.92724 
-0.758438 28.2931 -3.82328 
-1.88949 23.5776 -3.71933 
-3.02054 18.8621 -3.61537 
-4.15159 14.1465 -3.51142 
-5.28264 9.43103 -3.40746 
-6.4137 4.71552 -3.3035 
-7.54475 0 -3.19955 
2.35515 37.609 0.00436029 
1.21125 32.9079 0.13547 
0.067349 28.2067 0.266579 
-1.07655 23.5056 0.397689 
-2.22045 18.8045 0.528798 
-3.36435 14.1034 0.659908 
-4.50824 9.40224 0.791017 
-5.65214 4.70112 0.922126 
-6.79604 0 1.05324 
2.01259 37.6537 -1.9168 
0.89397 32.947 -1.80775 
-0.224653 28.2403 -1.69871 
-1.34328 23.5336 -1.58966 
-2.4619 18.8269 -1.48062 
-3.58052 14.1202 -1.37157 
-4.69915 9.41343 -1.26253 
-5.81777 4.70672 -1.15349 
-6.93639 0 -1.04444 
1.13837 38.2072 10.5362 
0.117496 33.4313 10.6864 
-0.903373 28.6554 10.8366 
-1.92424 23.8795 10.9868 
-2.94511 19.1036 11.137 
-3.96598 14.3277 11.2872 
-4.98685 9.55179 11.4374 
-6.00772 4.7759 11.5876 
-7.02859 0 11.7378 
0.950414 38.2546 10.7852 
-0.0666058 33.4728 10.9433 
-1.08363 28.6909 11.1013 
-2.10065 23.9091 11.2594 
-3.11767 19.1273 11.4175 
-4.13469 14.3455 11.5755 
-5.15171 9.56365 11.7336 
-6.16873 4.78182 11.8917 
-7.18575 0 12.0497 
-0.0604653 38.513 12.0172 
-1.07952 33.6989 12.194 
-2.09857 28.8848 12.3709 
-3.11762 24.0706 12.5478 
-4.13667 19.2565 12.7246 
-5.15573 14.4424 12.9015 
-6.17478 9.62825 13.0784 
-7.19383 4.81413 13.2552 
-8.21288 0 13.4321 
2.1987 37.9172 8.74641 
1.14852 33.1776 8.92696 
0.0983485 28.4379 9.10752 
-0.951825 23.6983 9.28808 
-2.002 18.9586 9.46863 
-3.05217 14.219 9.64919 
-4.10235 9.47931 9.82974 
-5.15252 4.73965 10.0103 
-6.2027 0 10.1909 
2.26324 37.8966 8.60196 
1.21311 33.1596 8.7632 
0.162985 28.4225 8.92445 
-0.887141 23.6854 9.08569 
-1.93727 18.9483 9.24693 
-2.98739 14.2112 9.40818 
-4.03752 9.47416 9.56942 
-5.08765 4.73708 9.73066 
-6.13777 0 9.89191 
1.81088 38.0245 9.40754 
0.778595 33.2715 9.5635 
-0.253688 28.5184 9.71946 
-1.28597 23.7653 9.87542 
-2.31825 19.0123 10.0314 
-3.35054 14.2592 10.1873 
-4.38282 9.50613 10.3433 
-5.4151 4.75307 10.4992 
-6.44738 0 10.6552 
-1.64741 38.9093 13.6091 
-2.63352 34.0456 13.8029 
-3.61964 29.1819 13.9966 
-4.60575 24.3183 14.1903 
-5.59187 19.4546 14.384 
-6.57798 14.591 14.5777 
-7.5641 9.72731 14.7715 
-8.55021 4.86366 14.9652 
-9.53633 0 15.1589 
-2.68084 39.1451 14.4167 
-3.64675 34.2519 14.5935 
-4.61266 29.3588 14.7703 
-5.57857 24.4657 14.9471 
-6.54447 19.5725 15.1239 
-7.51038 14.6794 15.3007 
-8.47629 9.78627 15.4775 
-9.4422 4.89313 15.6543 
-10.4081 0 15.8311 
-1.39444 38.8303 12.946 
-2.40206 33.9765 13.147 
-3.40967 29.1227 13.348 
-4.41729 24.2689 13.549 
-5.42491 19.4152 13.75 
-6.43252 14.5614 13.951 
-7.44014 9.70758 14.152 
-8.44776 4.85379 14.353 
-9.45537 0 14.554 
-1.20007 38.7703 12.455 
-2.21619 33.924 12.6384 
-3.23231 29.0777 12.8218 
-4.24844 24.2314 13.0052 
-5.26456 19.3851 13.1886 
-6.28068 14.5388 13.3719 
-7.29681 9.69257 13.5553 
-8.31293 4.84628 13.7387 
-9.32905 0 13.9221 
-0.907407 38.7277 12.9432 
-1.92698 33.8867 13.1433 
-2.94656 29.0457 13.3434 
-3.96613 24.2048 13.5436 
-4.98571 19.3638 13.7437 
-6.00529 14.5229 13.9439 
-7.02486 9.68191 14.144 
-8.04444 4.84096 14.3442 
-9.06401 0 14.5443 
-1.24025 38.812 13.2536 
-2.24155 33.9605 13.4668 
-3.24284 29.109 13.6801 
-4.24414 24.2575 13.8933 
-5.24543 19.406 14.1066 
-6.24673 14.5545 14.3199 
-7.24802 9.703 14.5331 
-8.24932 4.8515 14.7464 
-9.25061 0 14.9596 
2.987 37.6665 6.2344 
1.94366 32.9582 6.37172 
0.900316 28.2499 6.50904 
-0.143026 23.5416 6.64637 
-1.18637 18.8333 6.78369 
-2.22971 14.1249 6.92101 
-3.27305 9.41663 7.05834 
-4.31639 4.70831 7.19566 
-5.35973 0 7.33298 
2.98172 37.6689 6.27802 
1.94111 32.9602 6.4126 
0.900508 28.2516 6.54719 
-0.140098 23.543 6.68178 
-1.1807 18.8344 6.81636 
-2.22131 14.1258 6.95095 
-3.26192 9.41721 7.08554 
-4.30252 4.70861 7.22012 
-5.34313 0 7.35471 
2.99045 37.6002 4.13304 
1.93957 32.9002 4.26641 
0.888681 28.2001 4.39979 
-0.162203 23.5001 4.53316 
-1.21309 18.8001 4.66654 
-2.26397 14.1001 4.79991 
-3.31486 9.40004 4.93329 
-4.36574 4.70002 5.06666 
-5.41663 0 5.20004 
2.94608 37.6019 3.79602 
1.88376 32.9017 3.9457 
0.821445 28.2014 4.09538 
-0.240872 23.5012 4.24507 
-1.30319 18.8009 4.39475 
-2.36551 14.1007 4.54444 
-3.42782 9.40047 4.69412 
-4.49014 4.70024 4.8438 
-5.55246 0 4.99349 
2.6983 37.5931 2.0709 
1.60207 32.8939 2.22223 
0.505841 28.1948 2.37356 
-0.59039 23.4957 2.52489 
-1.68662 18.7965 2.67622 
-2.78285 14.0974 2.82755 
-3.87908 9.39827 2.97888 
-4.97531 4.69914 3.13021 
-6.07154 0 3.28154 
-24.6508 41.3896 17.213 
-24.6528 36.7908 17.1542 
-24.6547 32.1919 17.0953 
-24.6567 27.5931 17.0364 
-24.6587 22.9942 16.9776 
-24.6606 18.3954 16.9187 
-24.6626 13.7965 16.8598 
-24.6645 9.19769 16.801 
-24.6665 4.59885 16.7421 
-24.6684 0 16.6832 
-22.9804 41.3909 17.774 
-22.9783 36.7919 17.7569 
-22.9761 32.1929 17.7399 
-22.974 27.5939 17.7229 
-22.9718 22.9949 17.7058 
-22.9697 18.396 17.6888 
-22.9675 13.797 17.6718 
-22.9654 9.19798 17.6548 
-22.9633 4.59899 17.6377 
-22.9611 0 17.6207 
-22.6711 41.3934 17.8722 
-22.6821 36.7941 17.9126 
-22.6931 32.1949 17.9531 
-22.7041 27.5956 17.9935 
-22.7152 22.9963 18.0339 
-22.7262 18.3971 18.0744 
-22.7372 13.7978 18.1148 
-22.7482 9.19854 18.1553 
-22.7592 4.59927 18.1957 
-22.7702 0 18.2361 
-22.5228 41.3946 17.9222 
-22.5688 36.7952 17.9825 
-22.6148 32.1958 18.0428 
-22.6609 27.5964 18.1032 
-22.7069 22.997 18.1635 
-22.7529 18.3976 18.2238 
-22.7989 13.7982 18.2841 
-22.8449 9.1988 18.3445 
-22.8909 4.5994 18.4048 
-22.937 0 18.4651 
-15.8813 41.165 19.0704 
-16.2226 36.5911 19.1567 
-16.564 32.0173 19.2429 
-16.9053 27.4434 19.3291 
-17.2466 22.8695 19.4154 
-17.588 18.2956 19.5016 
-17.9293 13.7217 19.5878 
-18.2706 9.14779 19.674 
-18.6119 4.57389 19.7603 
-18.9533 0 19.8465 
-16.5682 41.2162 19.0675 
-16.852 36.6366 19.1572 
-17.1357 32.057 19.247 
-17.4195 27.4775 19.3367 
-17.7032 22.8979 19.4265 
-17.987 18.3183 19.5162 
-18.2707 13.7387 19.606 
-18.5545 9.15915 19.6958 
-18.8382 4.57958 19.7855 
-19.122 0 19.8753 
-17.638 41.2704 18.9982 
-17.8602 36.6848 19.0815 
-18.0823 32.0992 19.1649 
-18.3044 27.5136 19.2482 
-18.5265 22.928 19.3316 
-18.7487 18.3424 19.4149 
-18.9708 13.7568 19.4983 
-19.1929 9.1712 19.5816 
-19.415 4.5856 19.665 
-19.6372 0 19.7483 
-18.2529 41.2908 18.5272 
-18.4588 36.7029 18.6099 
-18.6647 32.1151 18.6927 
-18.8706 27.5272 18.7754 
-19.0765 22.9393 18.8582 
-19.2825 18.3515 18.9409 
-19.4884 13.7636 19.0236 
-19.6943 9.17574 19.1064 
-19.9002 4.58787 19.1891 
-20.1061 0 19.2719 
-14.3101 41.0456 19.026 
-14.6796 36.4849 19.1195 
-15.0491 31.9243 19.2131 
-15.4186 27.3637 19.3066 
-15.7881 22.8031 19.4001 
-16.1576 18.2425 19.4937 
-16.5271 13.6819 19.5872 
-16.8966 9.12123 19.6808 
-17.2661 4.56062 19.7743 
-17.6356 0 19.8679 
-13.4932 40.9695 18.9581 
-13.9588 36.4173 19.0777 
-14.4243 31.8652 19.1972 
-14.8899 27.313 19.3168 
-15.3554 22.7608 19.4364 
-15.821 18.2087 19.5559 
-16.2865 13.6565 19.6755 
-16.752 9.10433 19.795 
-17.2176 4.55216 19.9146 
-17.6831 0 20.0342 
-11.88 40.7892 18.7857 
-12.4033 36.257 18.9349 
-12.9265 31.7249 19.084 
-13.4497 27.1928 19.2331 
-13.9729 22.6607 19.3822 
-14.4961 18.1285 19.5313 
-15.0193 13.5964 19.6804 
-15.5425 9.06426 19.8295 
-16.0657 4.53213 19.9786 
-16.589 0 20.1277 
-11.3425 40.7227 18.6898 
-11.8925 36.198 18.8469 
-12.4426 31.6732 19.0041 
-12.9926 27.1485 19.1612 
-13.5427 22.6237 19.3183 
-14.0927 18.099 19.4755 
-14.6427 13.5742 19.6326 
-15.1928 9.04949 19.7898 
-15.7428 4.52475 19.9469 
-16.2928 0 20.104 
-9.85479 40.522 18.289 
-10.4558 36.0195 18.4651 
-11.0568 31.5171 18.6411 
-11.6578 27.0146 18.8172 
-12.2589 22.5122 18.9932 
-12.8599 18.0098 19.1693 
-13.4609 13.5073 19.3453 
-14.0619 9.00488 19.5213 
-14.6629 4.50244 19.6974 
-15.264 0 19.8734 
1.95267 37.6624 -2.179 
0.83189 32.9546 -2.0806 
-0.288888 28.2468 -1.98221 
-1.40967 23.539 -1.88382 
-2.53044 18.8312 -1.78542 
-3.65122 14.1234 -1.68703 
-4.772 9.4156 -1.58864 
-5.89278 4.7078 -1.49024 
-7.01355 0 -1.39185 
1.99373 37.6553 -2.02058 
0.876224 32.9484 -1.91412 
-0.241285 28.2414 -1.80765 
-1.35879 23.5345 -1.70119 
-2.4763 18.8276 -1.59472 
-3.59381 14.1207 -1.48826 
-4.71132 9.41382 -1.38179 
-5.82883 4.70691 -1.27533 
-6.94634 0 -1.16886 
-5.68285 39.3617 -14.5699 
-6.63362 34.9881 -14.6081 
-7.58439 30.6146 -14.6464 
-8.53517 26.2411 -14.6846 
-9.48594 21.8676 -14.7228 
-10.4367 17.4941 -14.761 
-11.3875 13.1206 -14.7992 
-12.3383 8.74703 -14.8374 
-13.289 4.37352 -14.8756 
-14.2398 0 -14.9138 
-4.18282 39.0093 -13.2565 
-5.27459 34.1331 -13.2799 
-6.36636 29.257 -13.3032 
-7.45813 24.3808 -13.3266 
-8.5499 19.5046 -13.35 
-9.64168 14.6285 -13.3734 
-10.7334 9.75232 -13.3968 
-11.8252 4.87616 -13.4202 
-12.917 0 -13.4436 
-5.87145 39.4027 -14.7282 
-6.79951 35.0246 -14.77 
-7.72757 30.6465 -14.8118 
-8.65562 26.2684 -14.8536 
-9.58368 21.8904 -14.8954 
-10.5117 17.5123 -14.9372 
-11.4398 13.1342 -14.9789 
-12.3679 8.75615 -15.0207 
-13.2959 4.37807 -15.0625 
-14.224 0 -15.1043 
-7.40717 39.7471 -15.8749 
-8.31944 35.3308 -15.9269 
-9.23172 30.9144 -15.9789 
-10.144 26.4981 -16.0309 
-11.0563 22.0817 -16.0829 
-11.9685 17.6654 -16.1349 
-12.8808 13.249 -16.1869 
-13.7931 8.8327 -16.2389 
-14.7054 4.41635 -16.2908 
-15.6177 0 -16.3428 
-22.4222 42.2222 -19.8968 
-22.9543 37.5309 -19.9118 
-23.4863 32.8395 -19.9267 
-24.0184 28.1482 -19.9416 
-24.5505 23.4568 -19.9566 
-25.0825 18.7654 -19.9715 
-25.6146 14.0741 -19.9865 
-26.1466 9.38272 -20.0014 
-26.6787 4.69136 -20.0164 
-27.2107 0 -20.0313 
-20.7154 42.0097 -19.1735 
-21.261 37.3419 -19.2125 
-21.8066 32.6742 -19.2515 
-22.3523 28.0064 -19.2905 
-22.8979 23.3387 -19.3295 
-23.4435 18.671 -19.3685 
-23.9891 14.0032 -19.4075 
-24.5347 9.33548 -19.4465 
-25.0803 4.66774 -19.4855 
-25.6259 0 -19.5245 
-25.2088 42.5526 -20.3855 
-25.7593 37.8245 -20.3936 
-26.3098 33.0964 -20.4016 
-26.8602 28.3684 -20.4097 
-27.4107 23.6403 -20.4178 
-27.9612 18.9122 -20.4258 
-28.5117 14.1842 -20.4339 
-29.0622 9.45612 -20.442 
-29.6126 4.72806 -20.45 
-30.1631 0 -20.4581 
-25.2085 42.5519 -21.1976 
-25.7364 37.8239 -21.1941 
-26.2643 33.0959 -21.1906 
-26.7921 28.368 -21.1872 
-27.32 23.64 -21.1837 
-27.8479 18.912 -21.1803 
-28.3758 14.184 -21.1768 
-28.9036 9.45598 -21.1733 
-29.4315 4.72799 -21.1699 
-29.9594 0 -21.1664 
-25.2091 42.5533 -19.0421 
-25.7891 37.8251 -19.0619 
-26.3691 33.097 -19.0817 
-26.949 28.3688 -19.1014 
-27.529 23.6407 -19.1212 
-28.1089 18.9126 -19.141 
-28.6889 14.1844 -19.1608 
-29.2688 9.45628 -19.1806 
-29.8488 4.72814 -19.2004 
-30.4287 0 -19.2202 
-25.2038 42.5418 -17.8245 
-25.7797 37.815 -17.8534 
-26.3556 33.0881 -17.8823 
-26.9314 28.3612 -17.9112 
-27.5073 23.6343 -17.9401 
-28.0832 18.9075 -17.9691 
-28.6591 14.1806 -17.998 
-29.235 9.45374 -18.0269 
-29.8108 4.72687 -18.0558 
-30.3867 0 -18.0847 
-20.6371 42.0012 -19.1722 
-21.1972 37.3344 -19.2192 
-21.7572 32.6676 -19.2663 
-22.3172 28.0008 -19.3133 
-22.8773 23.334 -19.3604 
-23.4373 18.6672 -19.4074 
-23.9973 14.0004 -19.4545 
-24.5574 9.3336 -19.5015 
-25.1174 4.6668 -19.5486 
-25.6774 0 -19.5956 
2.49452 37.6071 0.929609 
1.37332 32.9062 1.07613 
0.252122 28.2053 1.22265 
-0.869077 23.5044 1.36918 
-1.99028 18.8036 1.5157 
-3.11147 14.1027 1.66222 
-4.23267 9.40178 1.80875 
-5.35387 4.70089 1.95527 
-6.47507 0 2.10179 
2.83169 37.7165 6.75795 
1.79067 33.0019 6.89845 
0.749652 28.2874 7.03895 
-0.291365 23.5728 7.17945 
-1.33238 18.8582 7.31995 
-2.3734 14.1437 7.46045 
-3.41442 9.42912 7.60095 
-4.45543 4.71456 7.74145 
-5.49645 0 7.88195 
-4.40864 39.523 15.6375 
-5.20168 35.1315 15.7862 
-5.99472 30.7401 15.9349 
-6.78776 26.3486 16.0836 
-7.5808 21.9572 16.2323 
-8.37383 17.5658 16.381 
-9.16687 13.1743 16.5298 
-9.95991 8.78288 16.6785 
-10.7529 4.39144 16.8272 
-11.546 0 16.9759 
-4.18357 39.4763 15.4931 
-5.01407 35.09 15.6487 
-5.84456 30.7038 15.8042 
-6.67506 26.3175 15.9598 
-7.50556 21.9313 16.1153 
-8.33605 17.545 16.2709 
-9.16655 13.1588 16.4264 
-9.99704 8.7725 16.582 
-10.8275 4.38625 16.7375 
-11.658 0 16.8931 
-7.82017 39.8328 -16.1519 
-8.72858 35.4069 -16.2003 
-9.637 30.9811 -16.2487 
-10.5454 26.5552 -16.2971 
-11.4538 22.1293 -16.3455 
-12.3623 17.7035 -16.394 
-13.2707 13.2776 -16.4424 
-14.1791 8.85173 -16.4908 
-15.0875 4.42586 -16.5392 
-15.9959 0 -16.5876 
-2.32896 38.5747 -11.2313 
-3.45384 33.7528 -11.2195 
-4.57872 28.931 -11.2077 
-5.7036 24.1092 -11.1958 
-6.82848 19.2873 -11.184 
-7.95336 14.4655 -11.1721 
-9.07824 9.64367 -11.1603 
-10.2031 4.82183 -11.1484 
-11.328 0 -11.1366 
-1.06832 38.2751 -9.51442 
-2.2033 33.4907 -9.48526 
-3.33829 28.7064 -9.4561 
-4.47327 23.922 -9.42694 
-5.60826 19.1376 -9.39778 
-6.74324 14.3532 -9.36862 
-7.87823 9.56879 -9.33946 
-9.01321 4.78439 -9.31029 
-10.1482 0 -9.28113 
-25.1903 42.5129 -15.6187 
-25.7519 37.7892 -15.6994 
-26.3135 33.0656 -15.7802 
-26.8752 28.3419 -15.8609 
-27.4368 23.6183 -15.9417 
-27.9985 18.8946 -16.0225 
-28.5601 14.171 -16.1032 
-29.1218 9.44731 -16.184 
-29.6834 4.72365 -16.2648 
-30.2451 0 -16.3455 
-25.0171 42.1415 -4.2866 
-25.407 37.4591 -4.47201 
-25.7968 32.7768 -4.65741 
-26.1866 28.0944 -4.84282 
-26.5764 23.412 -5.02822 
-26.9663 18.7296 -5.21363 
-27.3561 14.0472 -5.39904 
-27.7459 9.36479 -5.58444 
-28.1358 4.68239 -5.76985 
-28.5256 0 -5.95525 
-24.9995 42.1037 -3.47988 
-25.3668 37.4255 -3.67177 
-25.734 32.7473 -3.86366 
-26.1013 28.0691 -4.05556 
-26.4686 23.3909 -4.24745 
-26.8358 18.7128 -4.43934 
-27.2031 14.0346 -4.63123 
-27.5704 9.35638 -4.82312 
-27.9376 4.67819 -5.01501 
-28.3049 0 -5.2069 
-24.7541 41.5774 10.3483 
-24.8834 36.9577 10.2072 
-25.0127 32.338 10.0661 
-25.1419 27.7183 9.92503 
-25.2712 23.0986 9.78393 
-25.4005 18.4789 9.64284 
-25.5298 13.8591 9.50174 
-25.6591 9.23943 9.36064 
-25.7884 4.61972 9.21955 
-25.9177 0 9.07845 
-12.9621 40.8763 -18.4193 
-13.7577 36.3345 -18.5663 
-14.5534 31.7927 -18.7132 
-15.3491 27.2509 -18.8601 
-16.1448 22.7091 -19.0071 
-16.9405 18.1673 -19.154 
-17.7361 13.6254 -19.3009 
-18.5318 9.08363 -19.4478 
-19.3275 4.54182 -19.5948 
-20.1232 0 -19.7417 
-25.425 43.0161 -8.66089 
-25.865 38.2365 -8.83458 
-26.3051 33.457 -9.00827 
-26.7451 28.6774 -9.18196 
-27.1851 23.8978 -9.35565 
-27.6252 19.1183 -9.52934 
-28.0652 14.3387 -9.70303 
-28.5053 9.55913 -9.87672 
-28.9453 4.77957 -10.0504 
-29.3854 0 -10.2241 
-25.4158 42.9964 -8.1373 
-25.8296 38.219 -8.33382 
-26.2435 33.4416 -8.53034 
-26.6574 28.6643 -8.72687 
-27.0713 23.8869 -8.92339 
-27.4852 19.1095 -9.11991 
-27.899 14.3321 -9.31644 
-28.3129 9.55476 -9.51296 
-28.7268 4.77738 -9.70948 
-29.1407 0 -9.90601 
-25.4692 43.111 -10.949 
-25.9737 38.3209 -11.0857 
-26.4782 33.5307 -11.2225 
-26.9827 28.7406 -11.3592 
-27.4872 23.9505 -11.4959 
-27.9918 19.1604 -11.6327 
-28.4963 14.3703 -11.7694 
-29.0008 9.58021 -11.9061 
-29.5053 4.79011 -12.0429 
-30.0098 0 -12.1796 
-25.463 43.0977 -10.5696 
-25.9503 38.3091 -10.7406 
-26.4377 33.5205 -10.9116 
-26.925 28.7318 -11.0826 
-27.4123 23.9432 -11.2536 
-27.8996 19.1545 -11.4246 
-28.3869 14.3659 -11.5955 
-28.8743 9.57727 -11.7665 
-29.3616 4.78864 -11.9375 
-29.8489 0 -12.1085 
-14.2425 41.8287 -19.1591 
-15.0166 37.1811 -19.2626 
-15.7907 32.5335 -19.3661 
-16.5649 27.8858 -19.4697 
-17.339 23.2382 -19.5732 
-18.1131 18.5905 -19.6768 
-18.8872 13.9429 -19.7803 
-19.6613 9.29527 -19.8838 
-20.4354 4.64764 -19.9874 
-21.2095 0 -20.0909 
-14.5937 41.8769 -18.6875 
-15.362 37.2239 -18.8001 
-16.1303 32.5709 -18.9128 
-16.8986 27.918 -19.0254 
-17.6668 23.265 -19.1381 
-18.4351 18.612 -19.2507 
-19.2034 13.959 -19.3634 
-19.9717 9.30598 -19.476 
-20.74 4.65299 -19.5887 
-21.5083 0 -19.7013 
-14.9032 41.9415 -19.2038 
-15.6523 37.2814 -19.3201 
-16.4014 32.6212 -19.4363 
-17.1505 27.961 -19.5526 
-17.8996 23.3008 -19.6688 
-18.6487 18.6407 -19.7851 
-19.3978 13.9805 -19.9014 
-20.1469 9.32034 -20.0176 
-20.896 4.66017 -20.1339 
-21.6451 0 -20.2501 
-17.0875 42.2679 -19.2764 
-17.7265 37.5715 -19.3527 
-18.3655 32.875 -19.4291 
-19.0045 28.1786 -19.5054 
-19.6435 23.4822 -19.5817 
-20.2825 18.7857 -19.6581 
-20.9215 14.0893 -19.7344 
-21.5605 9.39287 -19.8108 
-22.1995 4.69644 -19.8871 
-22.8385 0 -19.9635 
-18.7449 42.4923 -19.2519 
-19.3518 37.7709 -19.3357 
-19.9586 33.0496 -19.4196 
-20.5655 28.3282 -19.5034 
-21.1724 23.6068 -19.5873 
-21.7792 18.8855 -19.6711 
-22.3861 14.1641 -19.755 
-22.993 9.44273 -19.8388 
-23.5999 4.72137 -19.9226 
-24.2067 0 -20.0065 
-16.8386 42.2336 -19.2735 
-17.5209 37.541 -19.3543 
-18.2031 32.8483 -19.4351 
-18.8854 28.1557 -19.5158 
-19.5676 23.4631 -19.5966 
-20.2499 18.7705 -19.6774 
-20.9321 14.0779 -19.7582 
-21.6144 9.38524 -19.839 
-22.2966 4.69262 -19.9197 
-22.9789 0 -20.0005 
-16.3401 42.1576 -19.2477 
-17.0529 37.4735 -19.3367 
-17.7658 32.7893 -19.4257 
-18.4786 28.1051 -19.5148 
-19.1915 23.4209 -19.6038 
-19.9043 18.7367 -19.6928 
-20.6172 14.0525 -19.7819 
-21.33 9.36837 -19.8709 
-22.0429 4.68418 -19.96 
-22.7557 0 -20.049 
-25.5389 43.2605 -17.2549 
-26.0884 38.4537 -17.3151 
-26.638 33.647 -17.3754 
-27.1875 28.8403 -17.4357 
-27.737 24.0336 -17.4959 
-28.2866 19.2269 -17.5562 
-28.8361 14.4202 -17.6165 
-29.3856 9.61343 -17.6767 
-29.9351 4.80672 -17.737 
-30.4847 0 -17.7972 
-25.141 42.4072 6.47258 
-25.3458 37.6953 6.32912 
-25.5506 32.9834 6.18566 
-25.7555 28.2715 6.04219 
-25.9603 23.5596 5.89873 
-26.1652 18.8476 5.75527 
-26.37 14.1357 5.6118 
-26.5748 9.42382 5.46834 
-26.7797 4.71191 5.32488 
-26.9845 0 5.18142 
-25.1274 42.3781 7.18092 
-25.3056 37.6694 7.02217 
-25.4838 32.9607 6.86342 
-25.6621 28.2521 6.70468 
-25.8403 23.5434 6.54593 
-26.0185 18.8347 6.38718 
-26.1967 14.126 6.22843 
-26.3749 9.41735 6.06968 
-26.5531 4.70868 5.91094 
-26.7313 0 5.75219 
-25.159 42.4457 4.85758 
-25.3614 37.7295 4.70796 
-25.5637 33.0134 4.55833 
-25.7661 28.2972 4.4087 
-25.9684 23.581 4.25907 
-26.1708 18.8648 4.10945 
-26.3731 14.1486 3.95982 
-26.5755 9.43239 3.81019 
-26.7779 4.71619 3.66056 
-26.9802 0 3.51094 
-25.1754 42.481 4.0997 
-25.3962 37.7609 3.917 
-25.617 33.0408 3.73431 
-25.8378 28.3206 3.55161 
-26.0586 23.6005 3.36892 
-26.2794 18.8804 3.18622 
-26.5002 14.1603 3.00352 
-26.721 9.44021 2.82083 
-26.9417 4.72011 2.63813 
-27.1625 0 2.45544 
-25.1993 42.5323 2.56513 
-25.4208 37.8065 2.38573 
-25.6423 33.0807 2.20633 
-25.8638 28.3549 2.02692 
-26.0853 23.6291 1.84752 
-26.3068 18.9032 1.66812 
-26.5283 14.1774 1.48871 
-26.7498 9.45162 1.30931 
-26.9713 4.72581 1.12991 
-27.1928 0 0.950504 
-25.2448 42.6296 0.350647 
-25.4959 37.893 0.177865 
-25.747 33.1564 0.00508203 
-25.9981 28.4197 -0.1677 
-26.2492 23.6831 -0.340483 
-26.5003 18.9465 -0.513265 
-26.7514 14.2099 -0.686048 
-27.0025 9.47325 -0.85883 
-27.2536 4.73662 -1.03161 
-27.5047 0 -1.2044 
-25.2231 42.5833 1.53037 
-25.4726 37.8518 1.33205 
-25.722 33.1203 1.13373 
-25.9714 28.3889 0.935409 
-26.2208 23.6574 0.737089 
-26.4703 18.9259 0.53877 
-26.7197 14.1944 0.340451 
-26.9691 9.46295 0.142131 
-27.2185 4.73148 -0.0561881 
-27.4679 0 -0.254508 
-25.2685 42.6806 -1.09481 
-25.51 37.9384 -1.28585 
-25.7515 33.1961 -1.47689 
-25.993 28.4538 -1.66793 
-26.2345 23.7115 -1.85897 
-26.476 18.9692 -2.05002 
-26.7175 14.2269 -2.24106 
-26.959 9.48459 -2.4321 
-27.2005 4.74229 -2.62314 
-27.442 0 -2.81418 
-25.3732 42.9052 -6.27523 
-25.739 38.1379 -6.4641 
-26.1049 33.3707 -6.65296 
-26.4708 28.6034 -6.84183 
-26.8366 23.8362 -7.03069 
-27.2025 19.069 -7.21956 
-27.5683 14.3017 -7.40842 
-27.9342 9.53448 -7.59729 
-28.3001 4.76724 -7.78615 
-28.6659 0 -7.97502 
-25.3642 42.8859 -5.72522 
-25.7205 38.1208 -5.89645 
-26.0768 33.3557 -6.06769 
-26.4332 28.5906 -6.23892 
-26.7895 23.8255 -6.41016 
-27.1458 19.0604 -6.58139 
-27.5021 14.2953 -6.75263 
-27.8584 9.5302 -6.92386 
-28.2147 4.7651 -7.0951 
-28.571 0 -7.26633 
-25.2829 42.7115 -1.77422 
-25.5371 37.9658 -1.98713 
-25.7913 33.2201 -2.20005 
-26.0455 28.4743 -2.41297 
-26.2997 23.7286 -2.62588 
-26.554 18.9829 -2.8388 
-26.8082 14.2372 -3.05172 
-27.0624 9.49145 -3.26463 
-27.3166 4.74572 -3.47755 
-27.5708 0 -3.69047 
-25.1234 42.3694 7.49503 
-25.2779 37.6617 7.3359 
-25.4325 32.954 7.17676 
-25.5871 28.2463 7.01762 
-25.7416 23.5386 6.85848 
-25.8962 18.8309 6.69934 
-26.0508 14.1231 6.5402 
-26.2053 9.41543 6.38106 
-26.3599 4.70771 6.22192 
-26.5144 0 6.06278 
-25.0796 42.2756 9.66025 
-25.1766 37.5783 9.49078 
-25.2737 32.881 9.32132 
-25.3707 28.1837 9.15185 
-25.4677 23.4864 8.98239 
-25.5647 18.7892 8.81292 
-25.6617 14.0919 8.64346 
-25.7587 9.39458 8.47399 
-25.8557 4.69729 8.30453 
-25.9527 0 8.13506 
-18.65 42.0247 19.5574 
-18.8624 37.3553 19.6443 
-19.0749 32.6859 19.7313 
-19.2873 28.0165 19.8182 
-19.4997 23.3471 19.9052 
-19.7121 18.6776 19.9922 
-19.9246 14.0082 20.0791 
-20.137 9.33882 20.1661 
-20.3494 4.66941 20.253 
-20.5618 0 20.34 
-19.4028 42.0502 19.4096 
-19.5459 37.3779 19.4912 
-19.6891 32.7057 19.5729 
-19.8323 28.0335 19.6545 
-19.9755 23.3612 19.7361 
-20.1187 18.689 19.8178 
-20.2619 14.0167 19.8994 
-20.4051 9.34449 19.9811 
-20.5483 4.67224 20.0627 
-20.6915 0 20.1443 
-20.8248 42.0707 19.091 
-20.9118 37.3962 19.14 
-20.9988 32.7217 19.1889 
-21.0858 28.0471 19.2379 
-21.1728 23.3726 19.2869 
-21.2598 18.6981 19.3358 
-21.3467 14.0236 19.3848 
-21.4337 9.34905 19.4337 
-21.5207 4.67452 19.4827 
-21.6077 0 19.5317 
-24.9972 42.0988 15.0741 
-24.95 37.4212 14.9493 
-24.9029 32.7435 14.8245 
-24.8558 28.0659 14.6997 
-24.8086 23.3882 14.5749 
-24.7615 18.7106 14.4501 
-24.7144 14.0329 14.3253 
-24.6672 9.35529 14.2005 
-24.6201 4.67765 14.0757 
-24.573 0 13.9509 
-25.4975 43.1716 -13.1302 
-26.0164 38.3747 -13.2308 
-26.5353 33.5779 -13.3313 
-27.0543 28.7811 -13.4318 
-27.5732 23.9842 -13.5323 
-28.0922 19.1874 -13.6329 
-28.6111 14.3905 -13.7334 
-29.13 9.59368 -13.8339 
-29.649 4.79684 -13.9344 
-30.1679 0 -14.035 
-25.5186 43.217 -15.075 
-26.0521 38.4151 -15.1679 
-26.5856 33.6132 -15.2608 
-27.1191 28.8113 -15.3538 
-27.6526 24.0094 -15.4467 
-28.1861 19.2076 -15.5396 
-28.7196 14.4057 -15.6325 
-29.2531 9.60378 -15.7255 
-29.7866 4.80189 -15.8184 
-30.3201 0 -15.9113 
-25.4946 43.1654 -12.8323 
-26.0132 38.3692 -12.9424 
-26.5319 33.5731 -13.0525 
-27.0506 28.7769 -13.1626 
-27.5692 23.9808 -13.2727 
-28.0879 19.1846 -13.3828 
-28.6066 14.3885 -13.4929 
-29.1252 9.59231 -13.603 
-29.6439 4.79615 -13.713 
-30.1626 0 -13.8231 
-25.0361 42.1822 12.47 
-25.0949 37.4953 12.3299 
-25.1536 32.8084 12.1898 
-25.2124 28.1215 12.0497 
-25.2711 23.4346 11.9096 
-25.3299 18.7477 11.7695 
-25.3886 14.0607 11.6294 
-25.4474 9.37383 11.4893 
-25.5061 4.68691 11.3491 
-25.5649 0 11.209 
-25.033 42.1755 12.686 
-25.0686 37.4894 12.548 
-25.1042 32.8032 12.41 
-25.1398 28.117 12.272 
-25.1754 23.4309 12.134 
-25.211 18.7447 11.996 
-25.2466 14.0585 11.858 
-25.2822 9.37234 11.72 
-25.3178 4.68617 11.582 
-25.3534 0 11.4439 
-25.012 42.1305 14.0873 
-24.9947 37.4493 13.9465 
-24.9774 32.7682 13.8057 
-24.9602 28.087 13.6649 
-24.9429 23.4058 13.5241 
-24.9256 18.7247 13.3833 
-24.9083 14.0435 13.2425 
-24.891 9.36234 13.1017 
-24.8738 4.68117 12.9609 
-24.8565 0 12.8201 
-8.11017 40.9838 18.3762 
-8.78518 36.4301 18.5687 
-9.46019 31.8763 18.7613 
-10.1352 27.3226 18.9538 
-10.8102 22.7688 19.1463 
-11.4852 18.215 19.3389 
-12.1602 13.6613 19.5314 
-12.8352 9.10752 19.7239 
-13.5102 4.55376 19.9165 
-14.1852 0 20.109 
-7.13833 40.82 17.9727 
-7.84037 36.2845 18.1521 
-8.5424 31.7489 18.3316 
-9.24444 27.2133 18.5111 
-9.94647 22.6778 18.6905 
-10.6485 18.1422 18.87 
-11.3505 13.6067 19.0494 
-12.0526 9.07111 19.2289 
-12.7546 4.53556 19.4083 
-13.4567 0 19.5878 
-9.34975 41.1765 18.5691 
-9.98083 36.6013 18.7821 
-10.6119 32.0262 18.995 
-11.243 27.451 19.2079 
-11.8741 22.8758 19.4208 
-12.5052 18.3007 19.6337 
-13.1362 13.7255 19.8467 
-13.7673 9.15033 20.0596 
-14.3984 4.57517 20.2725 
-15.0295 0 20.4854 
-9.13498 41.1572 18.7919 
-9.78101 36.5842 19.0136 
-10.427 32.0112 19.2353 
-11.0731 27.4382 19.457 
-11.7191 22.8651 19.6787 
-12.3652 18.2921 19.9004 
-13.0112 13.7191 20.1221 
-13.6572 9.14605 20.3438 
-14.3033 4.57303 20.5655 
-14.9493 0 20.7872 
-9.34918 41.1901 18.8625 
-9.94997 36.6134 19.0675 
-10.5508 32.0367 19.2725 
-11.1515 27.46 19.4774 
-11.7523 22.8834 19.6824 
-12.3531 18.3067 19.8874 
-12.9539 13.73 20.0923 
-13.5547 9.15335 20.2973 
-14.1555 4.57667 20.5023 
-14.7563 0 20.7072 
-11.152 41.435 19.3308 
-11.7097 36.8311 19.5227 
-12.2675 32.2272 19.7145 
-12.8253 27.6233 19.9064 
-13.383 23.0194 20.0982 
-13.9408 18.4155 20.2901 
-14.4986 13.8117 20.482 
-15.0563 9.20777 20.6738 
-15.6141 4.60388 20.8657 
-16.1719 0 21.0575 
-11.6491 41.4956 19.4314 
-12.158 36.885 19.6054 
-12.6668 32.2744 19.7793 
-13.1757 27.6638 19.9533 
-13.6846 23.0531 20.1273 
-14.1935 18.4425 20.3012 
-14.7024 13.8319 20.4752 
-15.2112 9.22125 20.6491 
-15.7201 4.61063 20.8231 
-16.229 0 20.9971 
-13.4481 41.6954 19.6311 
-13.9183 37.0626 19.7886 
-14.3886 32.4297 19.9461 
-14.8588 27.7969 20.1037 
-15.329 23.1641 20.2612 
-15.7993 18.5313 20.4187 
-16.2695 13.8985 20.5763 
-16.7397 9.26564 20.7338 
-17.21 4.63282 20.8913 
-17.6802 0 21.0489 
-3.6251 40.0994 15.9486 
-4.49857 35.6439 16.1119 
-5.37204 31.1884 16.2752 
-6.24551 26.7329 16.4385 
-7.11898 22.2774 16.6019 
-7.99245 17.822 16.7652 
-8.86592 13.3665 16.9285 
-9.73939 8.91098 17.0918 
-10.6129 4.45549 17.2551 
-11.4863 0 17.4184 
-4.40733 40.2755 16.4749 
-5.25348 35.8005 16.655 
-6.09964 31.3254 16.8351 
-6.9458 26.8504 17.0151 
-7.79195 22.3753 17.1952 
-8.63811 17.9002 17.3753 
-9.48427 13.4252 17.5553 
-10.3304 8.95012 17.7354 
-11.1766 4.47506 17.9154 
-12.0227 0 18.0955 
-5.34247 40.4688 17.021 
-6.14562 35.9723 17.1976 
-6.94876 31.4757 17.3741 
-7.75191 26.9792 17.5507 
-8.55505 22.4827 17.7272 
-9.3582 17.9861 17.9038 
-10.1613 13.4896 18.0804 
-10.9645 8.99307 18.2569 
-11.7676 4.49654 18.4335 
-12.5708 0 18.6101 
-6.92564 40.7816 17.8667 
-7.67582 36.2503 18.0545 
-8.42601 31.719 18.2422 
-9.17619 27.1877 18.43 
-9.92638 22.6564 18.6177 
-10.6766 18.1251 18.8055 
-11.4267 13.5939 18.9933 
-12.1769 9.06257 19.181 
-12.9271 4.53129 19.3688 
-13.6773 0 19.5565 
0.425107 38.6151 -8.65204 
-0.775842 33.7882 -8.61374 
-1.97679 28.9613 -8.57544 
-3.17774 24.1344 -8.53714 
-4.37869 19.3075 -8.49884 
-5.57963 14.4807 -8.46054 
-6.78058 9.65377 -8.42224 
-7.98153 4.82689 -8.38394 
-9.18248 0 -8.34564 
0.948187 38.4944 -7.72653 
-0.252498 33.6826 -7.67633 
-1.45318 28.8708 -7.62614 
-2.65387 24.059 -7.57594 
-3.85455 19.2472 -7.52574 
-5.05524 14.4354 -7.47554 
-6.25592 9.62361 -7.42535 
-7.45661 4.8118 -7.37515 
-8.65729 0 -7.32495 
0.779151 38.5308 -8.08898 
-0.412236 33.7144 -8.03948 
-1.60362 28.8981 -7.98998 
-2.79501 24.0817 -7.94048 
-3.9864 19.2654 -7.89098 
-5.17779 14.449 -7.84148 
-6.36917 9.63269 -7.79198 
-7.56056 4.81634 -7.74247 
-8.75195 0 -7.69297 
-0.269804 38.7783 -9.77716 
-1.48109 33.931 -9.76276 
-2.69237 29.0837 -9.74836 
-3.90365 24.2364 -9.73396 
-5.11494 19.3891 -9.71956 
-6.32622 14.5418 -9.70516 
-7.53751 9.69457 -9.69076 
-8.74879 4.84728 -9.67636 
-9.96007 0 -9.66196 
-1.46594 39.069 -11.4613 
-2.54468 34.728 -11.4476 
-3.62342 30.387 -11.434 
-4.70217 26.046 -11.4204 
-5.78091 21.705 -11.4067 
-6.85965 17.364 -11.3931 
-7.93839 13.023 -11.3794 
-9.01714 8.682 -11.3658 
-10.0959 4.341 -11.3522 
-11.1746 0 -11.3385 
-2.11967 39.2337 -12.2267 
-3.16898 34.8744 -12.2281 
-4.21829 30.5151 -12.2296 
-5.2676 26.1558 -12.231 
-6.31691 21.7965 -12.2324 
-7.36622 17.4372 -12.2339 
-8.41553 13.0779 -12.2353 
-9.46484 8.71861 -12.2367 
-10.5141 4.3593 -12.2382 
-11.5635 0 -12.2396 
-10.9088 41.2184 -18.5074 
-11.7858 36.6386 -18.5824 
-12.6629 32.0588 -18.6573 
-13.5399 27.4789 -18.7323 
-14.417 22.8991 -18.8072 
-15.294 18.3193 -18.8822 
-16.171 13.7395 -18.9571 
-17.0481 9.15965 -19.0321 
-17.9251 4.57982 -19.107 
-18.8021 0 -19.1819 
-11.4241 41.3174 -18.6621 
-12.2789 36.7265 -18.7539 
-13.1336 32.1357 -18.8456 
-13.9884 27.5449 -18.9374 
-14.8431 22.9541 -19.0291 
-15.6979 18.3633 -19.1209 
-16.5526 13.7725 -19.2126 
-17.4074 9.18164 -19.3044 
-18.2621 4.59082 -19.3961 
-19.1169 0 -19.4879 
2.2281 38.231 -4.28875 
1.04242 33.4521 -4.18693 
-0.143255 28.6732 -4.08511 
-1.32893 23.8944 -3.98329 
-2.51461 19.1155 -3.88146 
-3.70029 14.3366 -3.77964 
-4.88596 9.55774 -3.67782 
-6.07164 4.77887 -3.576 
-7.25732 0 -3.47418 
1.56015 38.3488 -6.29349 
0.34699 33.5552 -6.20963 
-0.866174 28.7616 -6.12576 
-2.07934 23.968 -6.0419 
-3.2925 19.1744 -5.95803 
-4.50567 14.3808 -5.87417 
-5.71883 9.5872 -5.7903 
-6.932 4.7936 -5.70644 
-8.14516 0 -5.62258 
3.10291 38.1063 -0.298903 
1.9355 33.343 -0.164198 
0.76809 28.5797 -0.0294919 
-0.399319 23.8165 0.105214 
-1.56673 19.0532 0.239919 
-2.73414 14.2899 0.374625 
-3.90154 9.52658 0.509331 
-5.06895 4.76329 0.644036 
-6.23636 0 0.778742 
2.96891 38.1238 -1.05044 
1.79833 33.3584 -0.930368 
0.627755 28.5929 -0.8103 
-0.54282 23.8274 -0.690232 
-1.7134 19.0619 -0.570164 
-2.88397 14.2964 -0.450096 
-4.05455 9.53096 -0.330028 
-5.22512 4.76548 -0.20996 
-6.3957 0 -0.0898922 
0.743199 39.0554 12.1636 
-0.309832 34.1734 12.3383 
-1.36286 29.2915 12.513 
-2.41589 24.4096 12.6877 
-3.46892 19.5277 12.8623 
-4.52196 14.6458 13.037 
-5.57499 9.76384 13.2117 
-6.62802 4.88192 13.3863 
-7.68105 0 13.561 
0.397415 39.1438 12.5851 
-0.532518 34.7945 12.7363 
-1.46245 30.4451 12.8875 
-2.39238 26.0958 13.0388 
-3.32232 21.7465 13.19 
-4.25225 17.3972 13.3412 
-5.18218 13.0479 13.4925 
-6.11211 8.69861 13.6437 
-7.04205 4.34931 13.7949 
-7.97198 0 13.9462 
1.63543 38.8178 11.0145 
0.569661 33.9656 11.1885 
-0.496107 29.1134 11.3625 
-1.56187 24.2612 11.5364 
-2.62764 19.4089 11.7104 
-3.69341 14.5567 11.8844 
-4.75918 9.70446 12.0584 
-5.82494 4.85223 12.2323 
-6.89071 0 12.4063 
2.01258 38.7129 10.4276 
0.94395 33.8738 10.5947 
-0.124684 29.0347 10.7618 
-1.19332 24.1955 10.9289 
-2.26195 19.3564 11.096 
-3.33059 14.5173 11.2631 
-4.39922 9.67822 11.4302 
-5.46785 4.83911 11.5973 
-6.53649 0 11.7644 
2.72911 38.5146 9.20609 
1.66099 33.7003 9.38893 
0.592868 28.886 9.57177 
-0.475252 24.0716 9.75462 
-1.54337 19.2573 9.93746 
-2.61149 14.443 10.1203 
-3.67961 9.62866 10.3032 
-4.74773 4.81433 10.486 
-5.81585 0 10.6688 
3.18158 38.3702 8.19341 
2.09911 33.5739 8.35514 
1.01664 28.7777 8.51687 
-0.0658347 23.9814 8.67861 
-1.14831 19.1851 8.84034 
-2.23078 14.3888 9.00207 
-3.31325 9.59255 9.16381 
-4.39572 4.79628 9.32554 
-5.47819 0 9.48727 
0.210145 39.1912 12.7898 
-0.71945 34.8366 12.9573 
-1.64904 30.4821 13.1249 
-2.57864 26.1275 13.2924 
-3.50823 21.7729 13.4599 
-4.43783 17.4183 13.6275 
-5.36742 13.0637 13.795 
-6.29702 8.70916 13.9625 
-7.22661 4.35458 14.1301 
-8.15621 0 14.2976 
-0.883253 39.4684 13.8095 
-1.79413 35.083 13.9897 
-2.70501 30.6976 14.1699 
-3.61588 26.3122 14.3501 
-4.52676 21.9269 14.5303 
-5.43764 17.5415 14.7105 
-6.34851 13.1561 14.8907 
-7.25939 8.77075 15.0709 
-8.17026 4.38537 15.2511 
-9.08114 0 15.4313 
-1.91902 39.7157 14.7141 
-2.83831 35.3029 14.8864 
-3.75759 30.89 15.0588 
-4.67687 26.4772 15.2312 
-5.59615 22.0643 15.4035 
-6.51544 17.6514 15.5759 
-7.43472 13.2386 15.7482 
-8.354 8.82572 15.9206 
-9.27329 4.41286 16.093 
-10.1926 0 16.2653 
-2.07504 39.7403 14.5072 
-3.0012 35.3247 14.6816 
-3.92735 30.9091 14.8559 
-4.85351 26.4935 15.0303 
-5.77967 22.0779 15.2046 
-6.70583 17.6623 15.379 
-7.63199 13.2468 15.5533 
-8.55815 8.83117 15.7277 
-9.48431 4.41559 15.902 
-10.4105 0 16.0764 
-2.14646 39.7708 14.9013 
-3.05106 35.3518 15.0706 
-3.95566 30.9329 15.2399 
-4.86026 26.5139 15.4091 
-5.76486 22.0949 15.5784 
-6.66946 17.6759 15.7477 
-7.57406 13.2569 15.917 
-8.47866 8.83796 16.0862 
-9.38326 4.41898 16.2555 
-10.2879 0 16.4248 
3.32817 38.2831 6.37525 
2.2401 33.4977 6.53616 
1.15203 28.7124 6.69706 
0.0639551 23.927 6.85797 
-1.02412 19.1416 7.01887 
-2.11219 14.3562 7.17978 
-3.20026 9.57079 7.34069 
-4.28833 4.78539 7.50159 
-5.37641 0 7.6625 
3.73858 38.1747 5.92682 
2.65293 33.4029 6.08063 
1.56729 28.6311 6.23444 
0.481636 23.8592 6.38825 
-0.604013 19.0874 6.54206 
-1.68966 14.3155 6.69587 
-2.77531 9.54369 6.84968 
-3.86096 4.77184 7.00349 
-4.94661 0 7.1573 
3.73709 38.1324 4.51575 
2.64407 33.3658 4.69251 
1.55104 28.5993 4.86928 
0.458021 23.8327 5.04604 
-0.635002 19.0662 5.2228 
-1.72802 14.2996 5.39956 
-2.82105 9.5331 5.57633 
-3.91407 4.76655 5.75309 
-5.00709 0 5.92985 
3.69848 38.1071 3.80044 
2.57654 33.3438 3.9881 
1.45461 28.5804 4.17575 
0.332677 23.817 4.3634 
-0.789256 19.0536 4.55106 
-1.91119 14.2902 4.73871 
-3.03312 9.52679 4.92636 
-4.15506 4.76339 5.11402 
-5.27699 0 5.30167 
3.41911 38.1023 1.81009 
2.28773 33.3395 1.97972 
1.15635 28.5767 2.14934 
0.0249667 23.8139 2.31897 
-1.10641 19.0512 2.48859 
-2.23779 14.2884 2.65822 
-3.36917 9.52558 2.82784 
-4.50055 4.76279 2.99747 
-5.63193 0 3.16709 
-22.9873 42.0713 18.3969 
-22.9712 37.3967 18.385 
-22.9552 32.7221 18.3731 
-22.9391 28.0475 18.3612 
-22.9231 23.3729 18.3494 
-22.907 18.6984 18.3375 
-22.891 14.0238 18.3256 
-22.8749 9.34918 18.3137 
-22.8589 4.67459 18.3019 
-22.8428 0 18.29 
-21.7694 42.081 18.8073 
-21.8025 37.4054 18.853 
-21.8356 32.7297 18.8987 
-21.8687 28.054 18.9444 
-21.9018 23.3784 18.9901 
-21.9349 18.7027 19.0358 
-21.9679 14.027 19.0815 
-22.001 9.35134 19.1272 
-22.0341 4.67567 19.1728 
-22.0672 0 19.2185 
-16.4967 41.9281 19.7243 
-16.7366 37.2694 19.8755 
-16.9765 32.6107 20.0266 
-17.2164 27.952 20.1778 
-17.4563 23.2934 20.3289 
-17.6962 18.6347 20.4801 
-17.9361 13.976 20.6313 
-18.176 9.31735 20.7824 
-18.4159 4.65867 20.9336 
-18.6558 0 21.0847 
-17.0066 41.9485 19.6862 
-17.2334 37.2875 19.8079 
-17.4601 32.6266 19.9296 
-17.6869 27.9656 20.0513 
-17.9136 23.3047 20.173 
-18.1404 18.6438 20.2947 
-18.3671 13.9828 20.4164 
-18.5939 9.32188 20.5381 
-18.8206 4.66094 20.6598 
-19.0474 0 20.7816 
-13.8386 41.7311 19.6596 
-14.2157 37.0943 19.8124 
-14.5927 32.4575 19.9651 
-14.9697 27.8207 20.1178 
-15.3467 23.184 20.2706 
-15.7237 18.5472 20.4233 
-16.1008 13.9104 20.5761 
-16.4778 9.27358 20.7288 
-16.8548 4.63679 20.8816 
-17.2318 0 21.0343 
-16.2314 41.9121 19.7272 
-16.554 37.2552 19.8741 
-16.8766 32.5983 20.0209 
-17.1991 27.9414 20.1677 
-17.5217 23.2845 20.3145 
-17.8443 18.6276 20.4614 
-18.1669 13.9707 20.6082 
-18.4895 9.3138 20.755 
-18.8121 4.6569 20.9019 
-19.1346 0 21.0487 
-10.1324 41.2716 18.4897 
-10.7075 36.6859 18.6738 
-11.2826 32.1002 18.8579 
-11.8577 27.5144 19.042 
-12.4327 22.9287 19.2261 
-13.0078 18.3429 19.4102 
-13.5829 13.7572 19.5943 
-14.158 9.17147 19.7784 
-14.7331 4.58574 19.9625 
-15.3082 0 20.1466 
2.23255 38.2301 -4.27432 
1.04819 33.4514 -4.18633 
-0.136156 28.6726 -4.09833 
-1.32051 23.8938 -4.01034 
-2.50486 19.1151 -3.92235 
-3.68921 14.3363 -3.83436 
-4.87356 9.55753 -3.74637 
-6.05791 4.77877 -3.65838 
-7.24226 0 -3.57038 
2.01419 38.2844 -4.26384 
0.829111 33.4988 -4.18272 
-0.355972 28.7133 -4.1016 
-1.54105 23.9277 -4.02048 
-2.72614 19.1422 -3.93937 
-3.91122 14.3566 -3.85825 
-5.0963 9.57109 -3.77713 
-6.28138 4.78555 -3.69601 
-7.46647 0 -3.61489 
2.23082 38.2304 -4.28061 
1.04757 33.4516 -4.19723 
-0.135682 28.6728 -4.11385 
-1.31893 23.894 -4.03046 
-2.50219 19.1152 -3.94708 
-3.68544 14.3364 -3.86369 
-4.86869 9.55761 -3.78031 
-6.05194 4.77881 -3.69693 
-7.2352 0 -3.61354 
2.73597 38.1426 -2.33231 
1.55015 33.3748 -2.2183 
0.364339 28.607 -2.10429 
-0.821474 23.8392 -1.99028 
-2.00729 19.0713 -1.87627 
-3.1931 14.3035 -1.76226 
-4.37891 9.53566 -1.64825 
-5.56473 4.76783 -1.53423 
-6.75054 0 -1.42022 
-5.48915 40.0431 -15.3403 
-6.47713 35.5939 -15.3967 
-7.4651 31.1446 -15.453 
-8.45307 26.6954 -15.5094 
-9.44105 22.2462 -15.5658 
-10.429 17.7969 -15.6222 
-11.417 13.3477 -15.6786 
-12.405 8.89847 -15.735 
-13.3929 4.44923 -15.7914 
-14.3809 0 -15.8478 
-4.85506 39.8881 -14.8572 
-5.87093 35.4561 -14.9015 
-6.88681 31.0241 -14.9457 
-7.90269 26.5921 -14.9899 
-8.91857 22.1601 -15.0342 
-9.93444 17.7281 -15.0784 
-10.9503 13.296 -15.1227 
-11.9662 8.86403 -15.1669 
-12.9821 4.43202 -15.2111 
-13.998 0 -15.2554 
-3.76708 39.6326 -13.9039 
-4.79583 35.229 -13.944 
-5.82458 30.8254 -13.984 
-6.85332 26.4218 -14.0241 
-7.88207 22.0181 -14.0641 
-8.91082 17.6145 -14.1042 
-9.93957 13.2109 -14.1442 
-10.9683 8.80725 -14.1843 
-11.9971 4.40363 -14.2243 
-13.0258 0 -14.2644 
-6.76412 40.3298 -16.2874 
-7.74493 35.8487 -16.3528 
-8.72575 31.3677 -16.4181 
-9.70657 26.8866 -16.4835 
-10.6874 22.4055 -16.5489 
-11.6682 17.9244 -16.6142 
-12.649 13.4433 -16.6796 
-13.6298 8.96219 -16.7449 
-14.6107 4.48109 -16.8103 
-15.5915 0 -16.8756 
-7.25205 40.4456 -16.5928 
-8.20839 35.9516 -16.6766 
-9.16472 31.4577 -16.7603 
-10.1211 26.9637 -16.8441 
-11.0774 22.4698 -16.9279 
-12.0337 17.9758 -17.0116 
-12.9901 13.4819 -17.0954 
-13.9464 8.9879 -17.1791 
-14.9027 4.49395 -17.2629 
-15.8591 0 -17.3466 
-8.89028 40.8022 -17.6091 
-9.83261 36.2686 -17.6892 
-10.7749 31.735 -17.7692 
-11.7173 27.2015 -17.8493 
-12.6596 22.6679 -17.9293 
-13.6019 18.1343 -18.0093 
-14.5443 13.6007 -18.0894 
-15.4866 9.06715 -18.1694 
-16.429 4.53358 -18.2495 
-17.3713 0 -18.3295 
-9.08182 40.8352 -17.2463 
-10.0052 36.298 -17.3245 
-10.9286 31.7607 -17.4028 
-11.852 27.2235 -17.4811 
-12.7754 22.6862 -17.5594 
-13.6988 18.149 -17.6377 
-14.6222 13.6117 -17.7159 
-15.5457 9.07449 -17.7942 
-16.4691 4.53725 -17.8725 
-17.3925 0 -17.9508 
-8.9733 40.8207 -17.6524 
-9.90222 36.2851 -17.7387 
-10.8311 31.7494 -17.825 
-11.7601 27.2138 -17.9113 
-12.689 22.6782 -17.9977 
-13.6179 18.1425 -18.084 
-14.5468 13.6069 -18.1703 
-15.4758 9.07127 -18.2567 
-16.4047 4.53563 -18.343 
-17.3336 0 -18.4293 
-3.10589 39.4676 -13.2981 
-4.15051 35.0823 -13.3215 
-5.19513 30.697 -13.3449 
-6.23975 26.3117 -13.3682 
-7.28437 21.9264 -13.3916 
-8.32899 17.5411 -13.415 
-9.37361 13.1559 -13.4384 
-10.4182 8.77057 -13.4618 
-11.4628 4.38528 -13.4852 
-12.5075 0 -13.5086 
-21.8706 42.8703 -19.9365 
-22.3928 38.107 -19.9756 
-22.915 33.3436 -20.0148 
-23.4372 28.5802 -20.0539 
-23.9594 23.8168 -20.0931 
-24.4815 19.0535 -20.1322 
-25.0037 14.2901 -20.1714 
-25.5259 9.52674 -20.2105 
-26.0481 4.76337 -20.2497 
-26.5703 0 -20.2888 
-20.8371 42.7416 -19.4985 
-21.3801 37.9925 -19.5552 
-21.9231 33.2435 -19.6119 
-22.4661 28.4944 -19.6686 
-23.0091 23.7453 -19.7253 
-23.5521 18.9963 -19.782 
-24.0951 14.2472 -19.8387 
-24.6382 9.49814 -19.8954 
-25.1812 4.74907 -19.9521 
-25.7242 0 -20.0089 
-25.5478 43.2795 -19.4956 
-26.101 38.4707 -19.5059 
-26.6542 33.6618 -19.5162 
-27.2074 28.853 -19.5264 
-27.7606 24.0442 -19.5367 
-28.3138 19.2353 -19.547 
-28.867 14.4265 -19.5573 
-29.4202 9.61767 -19.5676 
-29.9733 4.80883 -19.5778 
-30.5265 0 -19.5881 
-25.5472 43.2781 -21.2723 
-26.0841 38.4695 -21.2688 
-26.6209 33.6608 -21.2653 
-27.1578 28.8521 -21.2618 
-27.6947 24.0434 -21.2582 
-28.2316 19.2347 -21.2547 
-28.7684 14.426 -21.2512 
-29.3053 9.61736 -21.2477 
-29.8422 4.80868 -21.2442 
-30.3791 0 -21.2406 
-25.5479 43.2796 -19.2949 
-26.1087 38.4708 -19.3165 
-26.6696 33.6619 -19.3381 
-27.2305 28.8531 -19.3597 
-27.7914 24.0442 -19.3813 
-28.3523 19.2354 -19.4029 
-28.9131 14.4265 -19.4245 
-29.474 9.61769 -19.4461 
-30.0349 4.80885 -19.4677 
-30.5958 0 -19.4893 
-25.5389 43.2605 -17.2558 
-26.0953 38.4537 -17.2886 
-26.6516 33.647 -17.3214 
-27.208 28.8403 -17.3542 
-27.7643 24.0336 -17.387 
-28.3207 19.2269 -17.4198 
-28.877 14.4202 -17.4526 
-29.4334 9.61344 -17.4854 
-29.9897 4.80672 -17.5181 
-30.5461 0 -17.5509 
-19.9149 42.6418 -19.4832 
-20.4716 37.9038 -19.5599 
-21.0284 33.1658 -19.6366 
-21.5851 28.4279 -19.7133 
-22.1418 23.6899 -19.79 
-22.6985 18.9519 -19.8667 
-23.2553 14.2139 -19.9434 
-23.812 9.47595 -20.0201 
-24.3687 4.73798 -20.0968 
-24.9254 0 -20.1736 
2.99028 38.2091 1.94293 
1.8495 33.433 2.10442 
0.70873 28.6569 2.2659 
-0.432045 23.8807 2.42738 
-1.57282 19.1046 2.58887 
-2.71359 14.3284 2.75035 
-3.85437 9.55229 2.91183 
-4.99514 4.77614 3.07332 
-6.13592 0 3.2348 
3.40316 38.1023 1.69439 
2.25768 33.3395 1.84731 
1.1122 28.5767 2.00024 
-0.0332865 23.8139 2.15317 
-1.17877 19.0512 2.30609 
-2.32425 14.2884 2.45902 
-3.46974 9.52558 2.61195 
-4.61522 4.76279 2.76487 
-5.7607 0 2.9178 
3.55962 38.2504 6.96705 
2.47766 33.4691 7.11797 
1.39569 28.6878 7.2689 
0.31372 23.9065 7.41982 
-0.768248 19.1252 7.57075 
-1.85022 14.3439 7.72167 
-2.93218 9.5626 7.8726 
-4.01415 4.7813 8.02352 
-5.09612 0 8.17445 
3.41512 38.1021 1.77979 
2.27807 33.3393 1.94165 
1.14103 28.5766 2.10352 
0.00398219 23.8138 2.26538 
-1.13306 19.051 2.42724 
-2.27011 14.2883 2.5891 
-3.40715 9.52552 2.75097 
-4.5442 4.76276 2.91283 
-5.68124 0 3.07469 
-9.27667 40.8829 -17.7877 
-10.182 36.3403 -17.8596 
-11.0874 31.7978 -17.9316 
-11.9928 27.2553 -18.0035 
-12.8981 22.7127 -18.0755 
-13.8035 18.1702 -18.1474 
-14.7089 13.6276 -18.2194 
-15.6142 9.08508 -18.2913 
-16.5196 4.54254 -18.3633 
-17.425 0 -18.4352 
-0.62071 38.8693 -10.2915 
-1.68248 34.5505 -10.2908 
-2.74426 30.2317 -10.2901 
-3.80603 25.9129 -10.2895 
-4.8678 21.5941 -10.2888 
-5.92957 17.2753 -10.2881 
-6.99135 12.9564 -10.2875 
-8.05312 8.63763 -10.2868 
-9.11489 4.31881 -10.2861 
-10.1767 0 -10.2855 
-1.05146 38.974 -9.87363 
-2.11665 34.6436 -9.86632 
-3.18184 30.3131 -9.85901 
-4.24702 25.9827 -9.8517 
-5.31221 21.6522 -9.8444 
-6.3774 17.3218 -9.83709 
-7.44259 12.9913 -9.82978 
-8.50778 8.66089 -9.82248 
-9.57296 4.33044 -9.81517 
-10.6382 0 -9.80786 
-25.052 42.2162 11.4484 
-25.1329 37.5256 11.2988 
-25.2139 32.8349 11.1493 
-25.2948 28.1442 10.9997 
-25.3758 23.4535 10.8501 
-25.4567 18.7628 10.7005 
-25.5376 14.0721 10.5509 
-25.6186 9.38139 10.4013 
-25.6995 4.69069 10.2517 
-25.7805 0 10.1021 
-25.0737 42.2628 9.98382 
-25.1482 37.5669 9.81743 
-25.2227 32.8711 9.65104 
-25.2972 28.1752 9.48466 
-25.3717 23.4793 9.31827 
-25.4462 18.7835 9.15188 
-25.5207 14.0876 8.9855 
-25.5952 9.39173 8.81911 
-25.6697 4.69587 8.65272 
-25.7442 0 8.48634 
-25.5194 43.2188 -15.1811 
-26.0569 38.4167 -15.2671 
-26.5943 33.6146 -15.3531 
-27.1318 28.8125 -15.4391 
-27.6692 24.0104 -15.5251 
-28.2067 19.2083 -15.611 
-28.7441 14.4063 -15.697 
-29.2816 9.60417 -15.783 
-29.819 4.80208 -15.869 
-30.3565 0 -15.955 
-25.3286 42.8095 -3.77838 
-25.6686 38.0529 -3.96658 
-26.0086 33.2963 -4.15477 
-26.3485 28.5397 -4.34296 
-26.6885 23.7831 -4.53115 
-27.0285 19.0265 -4.71935 
-27.3684 14.2698 -4.90754 
-27.7084 9.51323 -5.09573 
-28.0484 4.75661 -5.28392 
-28.3884 0 -5.47212 
-25.3259 42.8037 -3.65463 
-25.6512 38.0478 -3.86094 
-25.9765 33.2918 -4.06725 
-26.3018 28.5358 -4.27356 
-26.6271 23.7798 -4.47987 
-26.9524 19.0239 -4.68618 
-27.2777 14.2679 -4.89249 
-27.603 9.51194 -5.0988 
-27.9283 4.75597 -5.30511 
-28.2536 0 -5.51143 
-24.9776 42.0568 17.521 
-24.8976 37.3838 17.4447 
-24.8177 32.7108 17.3685 
-24.7377 28.0379 17.2922 
-24.6578 23.3649 17.216 
-24.5778 18.6919 17.1397 
-24.4979 14.0189 17.0635 
-24.4179 9.34595 16.9872 
-24.3379 4.67298 16.9109 
-24.258 0 16.8347 
-24.9955 42.0952 15.2461 
-24.9508 37.418 15.1535 
-24.9061 32.7407 15.061 
-24.8614 28.0635 14.9685 
