-7.37551,67.1403,5.05897,-0.212168,0.729503,-0.650238,0.850042
-14.2603,33.4959,13.5454,-0.40001,0.843146,0.3593,0.405581
-11.2172,66.3551,15.9098,-0.107896,0.67824,-0.726876,0.711543
-3.01685,37.1388,6.49857,-0.358351,0.899032,0.251645,0.335284
31.0683,43.7805,19.3547,0.555126,0.434968,-0.70897,0.300412
-6.70123,26.0399,5.84677,-0.405553,0.822675,0.398412,0.169612
-4.81649,76.8071,10.4588,-0.0202186,0.650071,-0.759604,0.914674
-18.5595,16.2791,6.41913,-0.320742,0.820157,0.47378,0.101411
-10.6235,19.8653,9.12817,-0.374174,0.806569,0.457646,0.127719
-3.96413,28.0597,13.3651,-0.420216,0.822424,0.383454,0.235175
-23.6821,23.9567,11.5828,-0.339074,0.823146,0.455477,0.302602
18.269,41.2599,-3.36761,0.166722,0.961871,-0.216815,0.394738
2.54285,47.8463,-9.49948,-0.237153,0.96401,0.120183,0.479635
8.96681,49.0495,0.0482686,-0.111327,0.987108,0.114997,0.494966
2.06519,41.8626,7.02802,-0.267747,0.951128,0.153844,0.389005
-20.2966,17.6876,8.03564,-0.321501,0.821264,0.471341,0.149558
-10.0464,36.8475,6.0295,-0.393219,0.872595,0.289752,0.378807
9.21492,48.8948,-2.47687,-0.175889,0.977903,0.112999,0.486193
-15.0968,32.1481,14.5712,-0.394937,0.83901,0.374283,0.398018
-15.83,75.7898,17.1678,-0.0136262,0.640988,-0.76743,0.812887
26.1971,34.6604,11.1832,0.470473,0.628995,-0.618886,0.256422
-6.10122,39.6064,-31.6524,0.0395519,0.987381,0.153343,0.269207
-18.0198,11.5337,8.90646,-0.301254,0.829687,0.469963,0.043721
-5.95793,75.1656,10.5037,-0.0342531,0.654499,-0.755286,0.892841
-4.86647,27.2369,11.9661,-0.417267,0.819853,0.392084,0.219583
3.69109,44.365,-11.7112,-0.204969,0.969111,0.137155,0.403875
-17.1651,30.7198,12.4025,-0.376711,0.843011,0.383954,0.374477
0.853083,55.7032,-4.18445,-0.324642,0.9456,0.0211738,0.644064
-4.09244,46.9195,-3.47448,-0.320284,0.946059,0.0488976,0.507988
-6.64109,68.1237,11.7411,-0.113873,0.684443,-0.720119,0.780991
-9.24913,24.2209,12.7508,-0.400307,0.80852,0.431335,0.214455
-7.86042,61.8153,12.3895,-0.241441,0.741774,-0.625681,0.688846
8.45757,52.3308,-9.3616,-0.242981,0.962834,0.117944,0.537923
36.4483,41.6136,15.5044,0.554184,0.440087,-0.706543,0.387569
3.27392,36.6007,3.35908,-0.171807,0.975186,0.139622,0.277743
-2.09931,44.8614,-25.0989,-0.0359436,0.988214,0.148796,0.393088
-10.5258,28.3604,13.6012,-0.404265,0.821957,0.401195,0.295168
-6.56533,41.9871,9.03906,-0.391399,0.896095,0.209335,0.454505
-13.7134,25.3011,14.6134,-0.385285,0.817489,0.428097,0.280406
29.9927,41.1871,15.3851,0.542196,0.470792,-0.695973,0.318374
27.9794,41.6731,15.0049,0.534081,0.491303,-0.688025,0.308664
7.58797,50.1409,-15.0669,-0.199766,0.971895,0.124557,0.491767
-15.6897,75.9429,10.1325,-0.0474924,0.654774,-0.754331,0.919997
3.84451,41.4813,-31.8534,0.022412,0.98836,0.150475,0.308062
-2.72706,55.3644,3.20157,-0.395161,0.892873,-0.215929,0.645124
0.099909,48.6712,-30.4437,0.0181857,0.990362,0.137306,0.448923
26.6075,48.9789,5.69401,0.490313,0.592627,-0.639051,0.495368
-14.2057,33.9946,9.18384,-0.400344,0.846804,0.350211,0.382137
-10.3354,42.6784,8.19204,-0.397889,0.890899,0.219052,0.491486
-2.11054,37.2995,-0.082466,-0.270864,0.939165,0.211193,0.308071
-10.0224,22.8946,14.218,-0.394989,0.806599,0.439751,0.21217
-22.3114,20.6397,2.99279,-0.342768,0.806037,0.482508,0.163988
-7.14079,63.0805,4.53887,-0.296447,0.775224,-0.557805,0.789456
-8.77602,39.9325,2.17312,-0.362609,0.908108,0.209415,0.409329
2.84157,40.42,-36.7909,0.0492278,0.98734,0.150789,0.275391
-1.8075,42.9808,-2.91263,-0.238985,0.959328,0.150254,0.416641
-22.0246,23.5655,5.91796,-0.341125,0.816442,0.465893,0.235535
-1.36421,33.6688,2.96235,-0.338384,0.904331,0.260156,0.24661
-6.80256,78.7521,12.9493,-0.0077057,0.644517,-0.764551,0.905194
-8.91228,35.0655,6.71622,-0.396371,0.864569,0.308887,0.343737
3.84247,48.8016,3.58862,-0.254766,0.963594,0.0811201,0.504516
-10.4376,80.1869,11.2008,-0.00339653,0.642177,-0.766549,0.951166
-19.9814,23.603,6.46059,-0.342421,0.821328,0.456254,0.22795
6.87089,41.2284,-6.86768,-0.00839488,0.963594,0.267237,0.344334
-13.0143,76.9525,14.2441,-0.0139465,0.643093,-0.765661,0.868454
17.2548,40.4426,9.21106,0.301437,0.844169,-0.443299,0.301671
-22.0564,24.9845,5.67842,-0.34013,0.82163,0.457422,0.256545
-9.79588,42.8531,8.16475,-0.397263,0.89416,0.206545,0.48999
-3.48784,52.5598,-13.8448,-0.227897,0.96678,0.115757,0.586095
-0.28762,56.239,-25.8129,-0.0748334,0.98732,0.14,0.607554
28.7825,41.5728,13.719,0.531559,0.498155,-0.685045,0.331996
-16.8334,20.8997,10.7445,-0.350559,0.816876,0.458064,0.201583
-19.275,17.7184,3.086,-0.340384,0.807674,0.481458,0.0987572
-3.03061,48.9038,-25.0267,-0.0579525,0.987678,0.145374,0.472219
25.0016,47.2449,9.1599,0.498257,0.574997,-0.648937,0.417882
-9.10426,53.2575,2.81555,-0.407117,0.87461,-0.263274,0.65468
-0.574203,38.1754,-34.4144,0.0434932,0.987065,0.154309,0.236532
-20.316,27.0061,6.4733,-0.333828,0.839612,0.428497,0.285681
2.2701,40.27,-36.871,0.0498423,0.987279,0.150983,0.271891
3.99972,51.613,-0.855582,-0.283604,0.957156,0.0584961,0.552968
4.64997,53.6302,-12.4796,-0.234304,0.965155,0.116517,0.573979
-2.87791,53.2231,-15.2367,-0.211659,0.969713,0.121887,0.591126
2.27854,37.2771,-0.473036,-0.160023,0.972192,0.170981,0.28771
-6.92935,77.6901,14.631,-0.0102148,0.64447,-0.764561,0.86728
-11.0568,67.5706,3.41623,-0.214501,0.725563,-0.653871,0.889915
-17.5035,32.2707,7.23765,-0.379222,0.844672,0.377783,0.364198
6.31348,46.5109,2.12709,-0.158327,0.982409,0.0990183,0.455068
-4.87211,50.6797,-2.87529,-0.367753,0.928316,-0.0546608,0.588699
-17.331,60.4567,4.57424,-0.308147,0.767095,-0.562682,0.806039
-8.79895,45.6523,1.46995,-0.388661,0.921371,0.00431143,0.518246
-11.3283,59.1977,0.0639551,-0.366495,0.813862,-0.4509,0.790155
-8.83242,45.2731,0.975285,-0.38729,0.921836,0.014992,0.51114
34.7899,42.1801,17.1954,0.556085,0.433376,-0.709194,0.35256
4.94208,46.7724,-17.5601,-0.163546,0.978093,0.128786,0.434452
24.2294,45.4491,10.1549,0.495996,0.578675,-0.647398,0.379717
-18.0627,16.7077,13.4812,-0.322903,0.8256,0.462729,0.167915
5.66224,52.7158,-21.0611,-0.126238,0.983435,0.130074,0.539601
0.972147,55.6651,-16.303,-0.198184,0.972164,0.124979,0.619216
8.01109,43.0917,-3.47199,-0.0924509,0.97764,0.188871,0.385517
-16.154,75.2194,16.4012,-0.0197206,0.643195,-0.765448,0.818096
0.04688,47.628,-35.7377,0.0578534,0.988636,0.138751,0.41441
-10.0119,25.9741,16.6194,-0.404939,0.812036,0.420264,0.278252
-3.43527,46.2492,-6.06465,-0.288451,0.953997,0.0817691,0.48719
3.06577,45.4062,-11.42,-0.211991,0.968108,0.133519,0.426928
3.4464,53.5093,-6.58064,-0.281883,0.955673,0.0850349,0.586941
-5.22509,27.8814,15.097,-0.419531,0.81874,0.391994,0.255814
-18.1275,68.0552,12.4758,-0.125183,0.681199,-0.721316,0.798526
2.63257,36.8283,0.175986,-0.157739,0.974365,0.160409,0.2792
35.1112,40.9876,11.7522,0.54277,0.473356,-0.693783,0.415534
-10.2626,49.4956,6.6296,-0.414737,0.888125,-0.198058,0.585291
24.2784,46.2218,2.27436,0.41178,0.727909,-0.548257,0.485776
3.39195,44.933,-1.75317,-0.175669,0.972792,0.151047,0.431691
-10.445,69.7554,15.3376,-0.0634018,0.661016,-0.747689,0.760661
-1.9691,41.9457,7.87877,-0.346867,0.919597,0.184459,0.417203
33.8477,43.2323,17.2966,0.554834,0.436922,-0.707996,0.35102
-6.96199,45.2431,-26.7843,-0.000839127,0.988625,0.150398,0.395252
-16.2968,13.6725,8.68692,-0.298682,0.832949,0.465817,0.0656314
-21.4537,24.2581,6.20706,-0.340421,0.821499,0.457441,0.245667
-17.7191,68.1426,12.0125,-0.128772,0.682699,-0.719263,0.805212
0.733423,48.8301,6.14185,-0.323077,0.944797,0.054588,0.516935
19.2564,46.8181,3.95161,0.325662,0.834058,-0.445299,0.452715
-5.3505,70.2393,11.0402,-0.0837839,0.672806,-0.735059,0.81743
17.1181,33.9888,2.97829,0.218745,0.928065,-0.301408,0.235812
8.9579,47.864,-3.12788,-0.187317,0.97535,0.116643,0.466964
1.8379,53.1615,-1.5783,-0.322417,0.946497,0.0138214,0.590927
-3.3614,55.5682,3.79872,-0.396763,0.88669,-0.237403,0.649877
-6.88224,66.4707,4.49824,-0.233976,0.74082,-0.629636,0.843187
11.9487,34.8615,6.08089,0.106434,0.980782,-0.163517,0.220928
2.6206,44.5603,8.20743,-0.275395,0.951938,0.134058,0.437659
-6.61453,48.3016,4.28008,-0.396219,0.917283,-0.0400245,0.549314
-9.71004,20.5858,14.1272,-0.387233,0.805189,0.449135,0.17402
-9.33461,80.5547,13.6015,-0.000258279,0.64093,-0.767599,0.92
-19.6214,24.5998,3.51032,-0.345084,0.818279,0.459714,0.215351
-23.2305,15.4099,8.9288,-0.312827,0.824167,0.47211,0.13965
-16.0013,68.3372,3.69826,-0.196239,0.711998,-0.674203,0.916728
-25.164,20.1831,11.1633,-0.334601,0.813585,0.475522,0.248727
-12.1473,67.431,8.81388,-0.162288,0.701161,-0.694288,0.824844
1.10071,46.2218,-33.2698,0.0377841,0.989164,0.141867,0.394406
32.7204,44.9369,13.919,0.545409,0.465907,-0.696749,0.401144
-5.05638,44.9848,-26.566,-0.0116933,0.988602,0.150096,0.39126
-16.3953,63.1398,11.3841,-0.204222,0.715242,-0.668373,0.751318
35.0587,43.2482,17.2372,0.555568,0.435219,-0.708469,0.364277
-0.312338,54.0083,2.62285,-0.375681,0.921008,-0.102997,0.610369
-3.1812,48.6634,-3.5307,-0.331036,0.943389,0.0207951,0.53632
24.3761,39.5113,5.86093,0.4164,0.720216,-0.554887,0.358139
8.33308,51.9234,-15.2573,-0.200726,0.971808,0.123686,0.522221
2.15232,51.9519,-30.4246,-0.00460816,0.990661,0.136268,0.510747
37.9602,43.5657,14.0393,0.551251,0.451455,-0.701649,0.440253
-4.59554,51.654,-7.51624,-0.322968,0.94604,0.026462,0.600656
-8.01312,53.1555,1.5593,-0.405818,0.882325,-0.238358,0.650483
27.9469,48.8745,12.4935,0.534969,0.492644,-0.686375,0.412573
19.4412,42.8884,6.79215,0.359689,0.787574,-0.500351,0.365809
4.7301,42.4813,-22.6912,-0.0818743,0.986221,0.143754,0.345157
-1.85387,51.6567,-15.016,-0.214394,0.969256,0.120742,0.558063
28.9833,36.549,14.0112,0.519692,0.526278,-0.673017,0.276385
-12.9029,49.9647,0.845683,-0.41626,0.883228,-0.215952,0.634933
-1.82002,55.4661,-8.7599,-0.290726,0.953932,0.0741116,0.648936
-8.52545,69.1683,2.84753,-0.191469,0.717003,-0.670259,0.911177
-11.3774,72.4378,3.26111,-0.130813,0.687927,-0.713893,0.963659
35.1581,43.5997,5.38647,0.524146,0.52384,-0.671463,0.521066
22.0915,44.9812,11.4879,0.488394,0.592125,-0.640983,0.341181
-0.318179,49.2082,-19.9746,-0.133564,0.981561,0.136746,0.490417
-15.4279,17.3493,1.49117,-0.34315,0.804478,0.484833,0.0526861
29.7812,40.7714,6.30964,0.491055,0.591935,-0.639123,0.421295
-4.2739,47.6235,-17.3438,-0.170444,0.976316,0.133249,0.481004
-9.32878,53.2248,9.14391,-0.392846,0.849868,-0.351277,0.617915
29.4735,49.3948,15.0131,0.543934,0.468664,-0.696054,0.397499
0.378282,42.2661,-32.9756,0.0372908,0.988035,0.149653,0.319374
0.023076,40.7926,-33.846,0.0424145,0.987564,0.151387,0.288651
4.24669,46.7093,-28.3852,-0.0250199,0.989172,0.144614,0.414382
30.6193,45.596,8.18607,0.51986,0.5314,-0.66885,0.461907
34.0423,39.3417,9.46498,0.529537,0.50639,-0.680559,0.414787
22.0525,43.9683,11.9483,0.486359,0.595487,-0.639414,0.324329
1.23705,41.0765,-5.64062,-0.167099,0.970724,0.172545,0.359898
-7.64274,73.6962,11.9189,-0.0426015,0.656189,-0.753393,0.85542
37.4416,42.0145,14.2971,0.552455,0.446727,-0.703725,0.417598
1.4997,49.4464,1.40761,-0.294323,0.954279,0.0522059,0.524491
-8.75431,28.7407,7.6042,-0.40487,0.829407,0.384923,0.242756
34.3071,43.5117,17.5792,0.554885,0.436959,-0.707933,0.354426
-16.786,74.7311,15.4723,-0.0293058,0.646531,-0.762325,0.827115
-4.98585,74.5638,8.83859,-0.0469334,0.659584,-0.750164,0.906965
0.620306,55.4183,-9.24562,-0.27904,0.95626,0.087771,0.633317
-12.3127,22.4468,10.9404,-0.378021,0.810336,0.447722,0.195518
-11.9238,40.3234,11.3101,-0.409917,0.864014,0.292315,0.48125
0.556545,55.9731,-23.2819,-0.109068,0.984399,0.138069,0.60795
-9.16099,46.7019,-36.5504,0.0576491,0.987723,0.145192,0.387889
-16.2417,63.6549,3.02045,-0.269348,0.746596,-0.608314,0.862038
-14.6595,16.3549,13.9775,-0.344621,0.815359,0.465216,0.144212
4.03982,36.7974,-1.64737,-0.10965,0.98394,0.140853,0.273156
0.286941,52.2953,-8.22681,-0.283459,0.955642,0.0799969,0.57862
-23.0459,23.8097,10.5865,-0.338202,0.823355,0.455748,0.287327
-1.30582,44.851,-8.0727,-0.25212,0.96104,0.113304,0.44339
-2.22377,34.3106,13.6134,-0.408159,0.855603,0.318354,0.320942
-9.69849,69.5734,13.6775,-0.0803313,0.668536,-0.739329,0.780595
-7.70972,73.1134,18.0233,-0.0193493,0.64491,-0.764014,0.760884
-6.95693,46.9969,-3.63761,-0.355275,0.93476,0.00189589,0.531337
-17.9965,69.2798,11.898,-0.111923,0.676324,-0.728052,0.820548
-7.1288,50.2847,-5.95143,-0.373575,0.925213,-0.0665059,0.600605
-3.39166,47.6714,-4.88169,-0.310978,0.948944,0.0528944,0.517047
2.93112,48.5375,-20.7797,-0.119036,0.983947,0.132962,0.46778
-22.6915,18.1344,13.288,-0.326916,0.819936,0.469926,0.219079
-7.2934,49.0188,-28.0777,-0.00310333,0.98905,0.147549,0.464331
-5.2556,48.566,-3.88008,-0.353932,0.935172,-0.0136043,0.549564
4.6461,49.9597,-6.89336,-0.251372,0.961718,0.109134,0.514542
5.63265,43.5924,7.86451,-0.163925,0.983106,0.0814286,0.404751
-8.6364,79.2718,8.48883,-0.0159575,0.647324,-0.762048,0.9781
-1.14785,51.8395,-7.31844,-0.306478,0.950557,0.0501261,0.580463
-15.7596,31.4079,14.1561,-0.387845,0.838378,0.383013,0.388202
-6.78047,63.6635,10.4999,-0.228559,0.736905,-0.636185,0.73262
5.39692,54.7624,-9.74757,-0.256634,0.960442,0.108117,0.596195
-9.67163,36.3104,9.36271,-0.403448,0.861572,0.308097,0.386139
19.1952,42.9137,11.7315,0.427626,0.686851,-0.587683,0.30784
-10.2121,52.6296,-0.600648,-0.409773,0.88051,-0.238302,0.666254
-5.76732,49.1545,-3.68339,-0.362605,0.931412,-0.0314406,0.565506
-1.6242,43.4439,-3.1372,-0.243432,0.959341,0.142846,0.424693
36.4363,42.2623,9.70278,0.539214,0.485917,-0.687846,0.467845
-9.95439,61.8446,13.1358,-0.227178,0.733059,-0.641104,0.688739
2.77787,44.097,-3.08319,-0.166715,0.972034,0.165396,0.416254
-0.670079,46.2632,-10.8393,-0.242239,0.963315,0.11552,0.461911
-5.07483,49.865,-21.6965,-0.101127,0.984477,0.143452,0.506904
1.72052,43.3219,-32.7011,0.0307632,0.988503,0.148039,0.340603
-10.7065,69.5994,1.88598,-0.192767,0.714674,-0.672371,0.937462
-16.7353,71.2764,8.56452,-0.110278,0.676749,-0.727908,0.889307
-0.567068,42.7886,-34.5252,0.0482519,0.987917,0.147284,0.324689
6.43331,41.4905,3.42746,-0.109758,0.990965,0.0770763,0.36064
-25.8543,20.0013,6.08904,-0.338127,0.807775,0.482877,0.204675
-7.16427,77.7659,13.7917,-0.00949818,0.644567,-0.764489,0.880594
-7.10787,75.4832,14.7022,-0.0175484,0.64645,-0.762755,0.838431
-15.9665,71.658,14.5804,-0.0580292,0.656514,-0.752079,0.803969
-0.043678,38.8114,-29.6898,0.0232803,0.987777,0.154124,0.262476
6.85814,52.831,-23.7143,-0.0989447,0.986051,0.133841,0.535198
-9.40142,44.2321,-34.0459,0.0469866,0.987652,0.149449,0.348564
-13.6587,71.8022,3.50795,-0.147142,0.692613,-0.706142,0.9579
-5.75676,71.4347,19.1306,-0.0201235,0.645262,-0.763697,0.72228
2.11627,47.5973,4.44723,-0.277919,0.956765,0.0857957,0.489357
19.7389,45.2751,-0.419248,0.248821,0.908918,-0.334599,0.46327
-13.7779,31.0094,13.8643,-0.395303,0.836061,0.380444,0.364382
18.8012,33.7666,5.28798,0.276386,0.882874,-0.379663,0.229987
-5.103,54.1147,2.63048,-0.399197,0.891869,-0.212629,0.642191
-5.82159,51.1459,-29.8025,0.00511129,0.989599,0.143764,0.499207
20.9551,47.028,2.76058,0.351933,0.80558,-0.476639,0.472321
-9.40947,30.6916,8.85581,-0.40428,0.836905,0.368981,0.288712
-0.26258,44.1259,-21.2946,-0.098156,0.984787,0.143387,0.389056
-5.54116,31.2007,4.25169,-0.396213,0.856619,0.330484,0.237607
6.22743,50.2413,-0.0338859,-0.217618,0.971432,0.0946724,0.521687
-16.8572,71.6635,9.4159,-0.0976324,0.671835,-0.734238,0.881868
-16.0009,19.7509,2.49232,-0.34763,0.805713,0.479563,0.103934
1.94834,49.3131,1.23921,-0.286542,0.956295,0.0582521,0.520057
-0.955815,50.7627,-17.4172,-0.176468,0.975669,0.130112,0.529822
1.25548,44.1981,-34.3461,0.0424591,0.988464,0.145386,0.35292
-1.40367,39.8243,5.58326,-0.317969,0.926109,0.203023,0.368802
-17.6716,63.4414,11.6846,-0.193616,0.709774,-0.677299,0.755367
-5.59362,76.8228,11.4708,-0.0180948,0.648954,-0.760612,0.900776
28.105,42.6596,17.0579,0.542921,0.468412,-0.697012,0.29202
-10.8416,73.2627,4.06538,-0.113009,0.681348,-0.723183,0.963188
2.64723,43.2758,-13.6236,-0.197769,0.970965,0.134587,0.383758
13.3786,44.4526,6.44254,0.119444,0.976087,-0.181622,0.399907
-5.93234,55.7046,2.71421,-0.397121,0.871465,-0.287825,0.674541
-22.4938,21.8805,3.81834,-0.342824,0.807083,0.480717,0.192417
-17.0499,73.6968,12.1193,-0.0566366,0.656627,-0.752086,0.866208
13.5047,43.008,4.54355,0.107261,0.982039,-0.155223,0.380459
-8.10616,72.0333,7.30621,-0.0954802,0.677108,-0.729663,0.896843
27.4621,44.6664,3.81202,0.466768,0.638841,-0.611563,0.474621
-10.5995,68.88,11.6031,-0.106721,0.678901,-0.726433,0.802251
27.5412,47.1057,16.5639,0.545302,0.462947,-0.698803,0.335127
-6.9579,74.623,7.36957,-0.0596159,0.663614,-0.745696,0.930183
22.0103,44.6259,8.04233,0.468163,0.629723,-0.619897,0.382062
-1.47914,37.4077,-31.4029,0.0370743,0.987138,0.155515,0.230212
20.775,38.8871,3.27463,0.308738,0.85327,-0.420251,0.340605
-4.51161,59.3385,0.233617,-0.384147,0.852518,-0.354463,0.74142
32.683,42.1304,7.79472,0.521598,0.526803,-0.671129,0.449634
-10.1867,41.9845,2.60794,-0.37875,0.910772,0.164444,0.460439
9.02014,47.3536,-0.902455,-0.125701,0.985271,0.115934,0.462196
-12.6657,65.2638,4.11281,-0.246005,0.738102,-0.628241,0.854964
-15.3602,63.6924,8.31284,-0.222703,0.724455,-0.652356,0.794621
-9.21184,65.5949,8.95891,-0.19288,0.718283,-0.66848,0.788379
-13.8551,77.9549,10.477,-0.0247049,0.647957,-0.761276,0.936892
8.54028,50.9209,-23.0217,-0.102349,0.985929,0.132167,0.497286
0.309175,44.0571,-12.7725,-0.216763,0.967679,0.128888,0.41024
2.7071,48.0351,-20.5962,-0.120747,0.983597,0.134005,0.459102
-13.4665,31.5452,6.554,-0.391996,0.844278,0.365423,0.317403
4.15871,47.9973,-11.0967,-0.225116,0.96618,0.125774,0.472309
-16.2405,75.5826,12.6841,-0.0340425,0.649169,-0.759882,0.87849
-5.03626,73.954,7.43599,-0.0634923,0.66565,-0.743558,0.917382
-9.78973,54.3776,5.22819,-0.3971,0.851633,-0.3421,0.664341
-13.9506,79.0209,10.9566,-0.0149928,0.644804,-0.764201,0.942755
-1.92089,49.8871,-35.2941,0.0538518,0.988881,0.138619,0.458958
32.1496,39.8961,13.4838,0.54053,0.476115,-0.693644,0.35149
22.8819,44.5911,2.04774,0.369566,0.78616,-0.495351,0.454354
28.2922,45.8996,5.47846,0.489625,0.59507,-0.637306,0.477618
1.5711,48.3534,-27.0519,-0.0372775,0.989039,0.142873,0.451016
-4.39658,52.0812,-22.1675,-0.105406,0.984263,0.141828,0.54655
26.2194,45.4842,9.63106,0.50256,0.566073,-0.653448,0.402978
-14.1876,64.2649,13.4679,-0.169828,0.70206,-0.691571,0.728629
0.638679,51.3391,-33.8781,0.0343498,0.989858,0.137848,0.491316
-9.10949,40.3436,2.18819,-0.366822,0.909456,0.195785,0.419902
35.4679,43.6805,8.27976,0.535466,0.497513,-0.682464,0.489342
4.30102,51.1095,-30.0903,-0.0155602,0.990242,0.138486,0.494075
-15.0581,62.9597,11.7956,-0.202604,0.715774,-0.668296,0.738754
-7.28333,34.0829,3.28851,-0.384075,0.87431,0.296764,0.295377
-4.63399,39.0725,2.19428,-0.326959,0.922323,0.205955,0.364822
2.74188,54.9645,-21.1029,-0.132278,0.982191,0.133427,0.589183
-11.9891,64.5429,4.60133,-0.250987,0.741913,-0.621749,0.835943
32.0255,44.0029,18.9502,0.555031,0.435415,-0.70877,0.317474
-1.69395,37.2568,-31.5196,0.0381035,0.987069,0.155702,0.226863
16.7193,38.3165,1.99506,0.191516,0.945905,-0.261888,0.314139
16.3672,39.983,6.6818,0.235391,0.908157,-0.346181,0.315648
33.455,48.4069,6.78364,0.527721,0.518548,-0.672769,0.536951
-6.76309,76.0434,12.9229,-0.0203665,0.6487,-0.760772,0.870812
31.0729,48.3952,7.75927,0.52343,0.524994,-0.67112,0.501239
-13.836,58.5845,5.71688,-0.330998,0.784616,-0.524231,0.747979
12.8652,34.0624,2.38245,0.112929,0.98037,-0.161624,0.221085
2.78015,40.9233,-7.02301,-0.142885,0.972994,0.181292,0.347682
-9.68258,49.861,1.95444,-0.410403,0.899388,-0.150569,0.602759
-15.3719,63.6299,6.04886,-0.247879,0.736391,-0.629511,0.821922
-8.11777,41.4077,13.0231,-0.406333,0.875468,0.261626,0.477364
-4.14314,53.0513,4.63534,-0.398235,0.900718,-0.173539,0.61072
-4.39328,53.3722,4.15437,-0.398431,0.897726,-0.187993,0.61914
-17.0457,56.2579,5.99494,-0.352708,0.796487,-0.491127,0.731208
0.740742,40.0407,-28.7704,0.012489,0.988126,0.153136,0.288429
32.6896,39.5553,8.64817,0.520266,0.528154,-0.671101,0.411585
-15.2951,19.4394,6.62682,-0.348071,0.810973,0.470286,0.132102
-1.61513,38.929,-34.4901,0.0443283,0.987154,0.153497,0.250114
-10.3205,69.6365,6.9527,-0.141487,0.694227,-0.705713,0.873408
-9.18442,71.7245,18.1099,-0.0282139,0.647624,-0.761437,0.7435
-18.6634,12.1925,9.42468,-0.301805,0.829479,0.469978,0.0629936
-12.1231,35.9263,10.9575,-0.409203,0.850136,0.331392,0.409348
-6.50608,61.6157,9.65994,-0.28016,0.764678,-0.580326,0.711494
25.0449,44.8375,9.18438,0.490294,0.590579,-0.640959,0.392276
-6.28583,43.1897,9.89784,-0.392728,0.898535,0.195956,0.475791
-19.18,11.6928,11.0165,-0.303614,0.828484,0.470567,0.0726338
6.08799,48.8301,-6.59574,-0.236206,0.964294,0.11977,0.487986
28.3163,46.6003,6.78062,0.501292,0.570903,-0.650213,0.469528
-11.5531,71.4955,3.15314,-0.151539,0.696212,-0.701658,0.952128
-6.61837,36.5659,15.1337,-0.411806,0.854614,0.316308,0.401664
-22.074,23.9233,13.992,-0.344489,0.824738,0.448481,0.31238
-5.4884,33.975,11.6692,-0.409305,0.85086,0.329403,0.32947
8.02245,51.0752,-25.7293,-0.0758482,0.987624,0.137277,0.497017
17.9287,43.7715,4.86616,0.280118,0.877096,-0.390176,0.39414
-16.7413,30.4865,15.8079,-0.385279,0.835386,0.392035,0.393576
1.21813,38.9287,8.08821,-0.312193,0.927662,0.204887,0.344646
-13.9788,29.7285,9.19916,-0.38143,0.841032,0.383636,0.31044
-11.7031,59.4556,7.85346,-0.315317,0.780037,-0.540479,0.727041
-13.418,18.8017,5.70884,-0.355514,0.806946,0.471643,0.101079
-0.954664,43.926,-31.0178,0.0238762,0.988724,0.147833,0.356306
-13.5693,74.5699,4.52057,-0.0977172,0.674067,-0.732178,0.980494
12.697,46.9059,2.52118,0.0417536,0.998748,-0.0275487,0.457717
-3.06885,53.9915,-21.6886,-0.120098,0.982957,0.13918,0.582624
-11.0736,35.8657,11.9231,-0.411099,0.850112,0.3291,0.406322
6.82811,34.7131,0.823219,-0.0495128,0.997767,0.044832,0.230549
-12.1306,49.6628,0.0108503,-0.414443,0.890544,-0.187531,0.625649
4.57464,54.8567,-8.35672,-0.270059,0.957833,0.0981052,0.603894
2.37872,38.402,-2.66497,-0.128964,0.974425,0.184022,0.306451
-13.0687,60.2705,8.36942,-0.293312,0.764134,-0.574515,0.739077
-7.68317,62.0162,8.62547,-0.280402,0.764799,-0.58005,0.73463
31.1696,44.1195,9.98782,0.527615,0.512021,-0.677833,0.428854
23.4679,37.5599,2.62061,0.347467,0.812374,-0.46831,0.348366
-3.27697,74.9188,10.937,-0.0272239,0.652495,-0.757304,0.881973
-12.912,17.6027,3.52301,-0.348931,0.805411,0.479124,0.0588302
-2.51143,41.087,-34.687,0.0491493,0.987444,0.150126,0.290463
-1.97462,49.3951,4.43405,-0.361402,0.932379,-0.007607,0.539183
-1.07928,47.7754,7.34698,-0.349174,0.935023,0.0617232,0.508221
-0.288081,55.9455,-19.3928,-0.156475,0.978667,0.133138,0.620432
30.3317,36.7075,8.27729,0.496342,0.579495,-0.646397,0.357006
1.72785,51.116,3.15721,-0.319875,0.947187,0.0227284,0.55207
-5.14191,50.1855,-24.7418,-0.0556085,0.987718,0.146015,0.500015
-5.20219,62.3574,0.680773,-0.349573,0.813066,-0.465534,0.797555
-12.1811,76.2342,19.286,-0.00522221,0.638197,-0.769855,0.784455
9.09527,49.9819,-7.54163,-0.23779,0.963706,0.121352,0.494769
-25.4271,20.3507,10.25,-0.33475,0.81253,0.477217,0.244889
-3.6291,48.0055,-18.4396,-0.15183,0.978907,0.136707,0.481686
24.2714,37.6329,13.1515,0.479976,0.609647,-0.630835,0.253691
-14.4789,31.2382,15.2682,-0.395522,0.835805,0.380778,0.383916
38.601,45.4495,9.4016,0.544274,0.477411,-0.689815,0.525455
-6.9615,42.0569,12.9493,-0.403261,0.881439,0.245859,0.477794
-11.1824,54.2898,-1.64724,-0.407183,0.865703,-0.291137,0.710156
1.17162,40.1736,6.26635,-0.276267,0.944736,0.176494,0.361425
-7.97666,64.2354,2.66696,-0.292279,0.770738,-0.56616,0.831044
-5.62987,54.691,6.64129,-0.398717,0.869068,-0.292825,0.634738
2.79473,41.215,-6.24661,-0.141404,0.973028,0.182269,0.355091
-6.88345,64.4942,3.69201,-0.279584,0.765274,-0.579818,0.819259
7.23251,41.3418,7.42662,-0.0768039,0.996889,0.0177259,0.353406
34.7936,45.7292,8.98163,0.535822,0.500321,-0.680128,0.494261
15.9528,46.0421,4.20567,0.190741,0.947243,-0.257581,0.437567
-15.0811,23.5998,4.20603,-0.360397,0.814302,0.455001,0.17583
9.02275,49.1813,-2.11588,-0.175333,0.978043,0.112653,0.492693
4.23465,54.7285,-9.31988,-0.264817,0.95889,0.10199,0.601715
-13.578,78.8779,16.4923,-0.00123094,0.63809,-0.76996,0.858732
-12.1921,35.4605,16.1764,-0.412825,0.843547,0.343517,0.43798
18.0446,44.4704,-2.05108,0.172741,0.957992,-0.228938,0.446607
-0.0897008,39.1492,0.207513,-0.205005,0.958472,0.198252,0.334108
-4.27616,34.3764,2.36215,-0.355524,0.89545,0.267902,0.275613
18.9701,35.9311,3.74349,0.264018,0.894054,-0.361887,0.276797
5.79951,50.5993,-0.272253,-0.232641,0.968446,0.0893946,0.529028
6.61631,46.3486,-6.72086,-0.221408,0.964662,0.142849,0.439865
20.274,43.3809,0.0714443,0.265232,0.895618,-0.3571,0.431268
-9.01929,47.3226,-37.9327,0.0613551,0.987676,0.143985,0.395618
19.771,36.4716,-1.38745,0.225367,0.926165,-0.30237,0.313676
33.568,49.7381,7.28301,0.529498,0.514798,-0.674252,0.545416
3.55335,54.0392,-11.5276,-0.247092,0.962685,0.110375,0.588303
-1.81227,49.9713,-2.64147,-0.329529,0.944029,0.0148085,0.55301
0.286118,52.9611,-7.47452,-0.294226,0.953312,0.0680299,0.592682
20.8878,41.4055,-0.803483,0.260467,0.899958,-0.349617,0.405997
16.5797,37.4773,0.69824,0.175652,0.955494,-0.237019,0.303691
3.8179,44.7479,-21.3237,-0.105324,0.984517,0.140119,0.392602
21.7765,38.0607,8.19441,0.395381,0.747587,-0.533655,0.295068
-7.24901,80.6644,9.83221,-0.00507751,0.644023,-0.76499,0.975499
-0.969515,55.6038,-7.33904,-0.304311,0.950835,0.0575066,0.649737
-2.29349,52.4863,-22.0983,-0.110205,0.983993,0.140044,0.550551
33.7754,45.025,9.33267,0.532918,0.503624,-0.679971,0.472326
-3.54047,45.9476,6.12555,-0.365574,0.927383,0.0794799,0.490658
0.272009,38.498,11.3591,-0.363033,0.899162,0.244368,0.357704
26.3019,39.5904,5.40685,0.438381,0.687114,-0.579393,0.381212
-5.34468,66.4901,7.25085,-0.196699,0.722765,-0.66251,0.807254
-1.02634,44.7558,1.02879,-0.273128,0.953159,0.12996,0.449512
26.7827,36.9684,8.48538,0.468797,0.632875,-0.616197,0.320057
-11.0824,20.6129,14.708,-0.383373,0.805695,0.451531,0.189931
-0.489262,47.3358,-9.46862,-0.253687,0.961278,0.107646,0.484803
-2.44776,48.3324,6.40704,-0.367747,0.929751,0.0180267,0.523237
4.45629,52.641,-4.0015,-0.280285,0.956776,0.0775872,0.568387
-4.88949,47.5322,-39.6655,0.0708787,0.987475,0.140959,0.398521
-14.9545,61.0456,6.31677,-0.285991,0.757053,-0.587435,0.781926
18.8522,35.0743,5.12897,0.281472,0.878326,-0.386415,0.253192
-3.7138,52.0706,-17.182,-0.183146,0.974463,0.129918,0.564904
-1.59206,56.1447,-23.7503,-0.0980596,0.985338,0.139616,0.614174
-5.44161,66.3892,5.22819,-0.23145,0.740887,-0.63049,0.827904
-2.12411,41.4313,-26.9931,0.000831296,0.988385,0.151967,0.32045
7.81501,39.1118,-3.01416,-0.0473323,0.99112,0.124259,0.314365
-11.9307,53.0186,1.21289,-0.40953,0.863412,-0.294626,0.679652
1.84011,41.6383,7.67715,-0.280526,0.945806,0.163573,0.387643
4.63446,47.6489,1.78154,-0.216196,0.971639,0.0957957,0.480277
-3.31051,53.1816,-18.3358,-0.1665,0.977025,0.133044,0.580475
-17.0124,66.3713,4.61201,-0.216409,0.720465,-0.658861,0.883145
-16.138,11.3953,8.41351,-0.301173,0.830195,0.469118,0.0258521
-0.708517,40.306,3.25003,-0.265743,0.944146,0.194856,0.366872
8.52631,42.7317,0.120376,-0.0633302,0.992412,0.105393,0.381902
-11.6288,35.0603,13.5035,-0.41071,0.84518,0.342034,0.408695
-3.29008,46.7274,-7.21103,-0.285619,0.9548,0.0823265,0.493913
-4.97756,42.5768,1.16478,-0.32227,0.936188,0.140336,0.431749
-7.67237,42.6637,9.4801,-0.397178,0.893944,0.20764,0.476037
-1.4013,46.5559,-5.96086,-0.270945,0.957687,0.097074,0.48073
-10.3192,33.0216,7.76646,-0.400859,0.849144,0.343898,0.326642
23.0047,34.9552,7.21162,0.389058,0.758877,-0.522244,0.267728
20.027,42.9072,7.98138,0.409356,0.717808,-0.563186,0.354439
26.4454,44.4212,11.9942,0.517056,0.533071,-0.669693,0.36269
-23.8517,20.0706,6.02486,-0.338006,0.809255,0.480477,0.192345
38.7465,47.0727,9.98795,0.545063,0.476195,-0.690032,0.534705
-4.4215,72.4213,8.64919,-0.0706945,0.668479,-0.740364,0.878589
-5.14783,33.6488,11.8675,-0.410248,0.849365,0.332078,0.322807
-9.84976,38.2919,10.7326,-0.406698,0.865473,0.292494,0.42809
20.3236,44.208,5.56795,0.375842,0.770997,-0.514107,0.399474
-5.83666,77.7101,13.8784,-0.0113192,0.645709,-0.7635,0.87769
18.2896,46.7657,0.532379,0.222055,0.928359,-0.298062,0.475341
-15.6905,33.3994,12.6578,-0.39472,0.843298,0.364753,0.408759
27.0605,42.8317,3.12493,0.447826,0.672535,-0.589193,0.454604
21.4391,41.4884,-0.815641,0.273997,0.888639,-0.367759,0.41169
3.66318,54.048,-18.6184,-0.162581,0.978429,0.127455,0.574161
5.75956,45.5864,-30.2831,-0.00304673,0.989288,0.145947,0.38836
2.2794,44.2977,1.71694,-0.20851,0.966797,0.147741,0.425575
9.41068,38.0698,-4.58796,-0.0223716,0.993286,0.113498,0.294598
-8.43888,45.1157,4.64928,-0.393823,0.917383,0.057557,0.507212
-7.0138,76.1597,11.9268,-0.0218849,0.649509,-0.760039,0.886807
-13.4665,17.6549,7.53413,-0.34836,0.810561,0.470783,0.0997231
-0.828685,56.0605,-26.2863,-0.0671066,0.987851,0.14017,0.603486
-16.4662,23.6019,4.09693,-0.354096,0.815567,0.457675,0.184061
-1.26806,45.9639,-7.48173,-0.260279,0.95969,0.106068,0.466073
-16.3791,12.3064,9.93745,-0.30162,0.830785,0.467785,0.0554078
14.5519,44.4429,4.75274,0.14606,0.968899,-0.199755,0.406127
5.66722,48.1632,-30.6113,-0.00767841,0.989727,0.142761,0.436381
28.6943,49.857,12.6935,0.537588,0.486875,-0.688442,0.426198
-16.0594,60.948,8.34488,-0.266532,0.745576,-0.610801,0.762184
3.21804,42.7649,-15.9024,-0.176314,0.975066,0.134755,0.367581
2.67544,56.0511,-17.6095,-0.181196,0.975171,0.127319,0.617342
-3.34139,45.0604,9.50888,-0.375827,0.91547,0.143763,0.482862
-15.7635,55.0565,7.20768,-0.362961,0.805876,-0.467785,0.695421
-6.44077,74.3654,17.9365,-0.0159266,0.644173,-0.764714,0.776974
-9.92533,82.761,11.242,0.0036828,0.640056,-0.768319,0.982517
4.53678,53.0771,-12.2057,-0.235799,0.964827,0.11622,0.564577
13.3522,40.8797,-2.80602,0.02754,0.99959,-0.00787577,0.359267
2.25356,51.7232,-10.7935,-0.253884,0.961361,0.106432,0.552255
-5.80974,45.5497,-31.2696,0.0325048,0.988508,0.147633,0.385497
5.1714,43.2232,5.429,-0.162843,0.982323,0.0923233,0.397566
-13.3236,37.6092,5.48551,-0.398191,0.866573,0.300826,0.413145
-3.50801,49.7257,-37.4654,0.0670406,0.988,0.139143,0.448724
-5.80567,50.7891,-34.0505,0.0447439,0.989083,0.140403,0.47778
-3.52732,46.1278,7.25445,-0.373412,0.923941,0.0830416,0.495152
-18.0369,24.4524,12.569,-0.352208,0.828416,0.435518,0.281251
-15.7377,57.7216,7.94065,-0.324055,0.778612,-0.537356,0.723569
-17.0482,13.2026,9.7959,-0.30166,0.831323,0.466802,0.0725628
-17.0047,72.8536,16.7515,-0.0393038,0.649604,-0.759256,0.786216
-21.0659,19.9415,10.4346,-0.332957,0.819215,0.466932,0.211706
8.66861,47.3469,-21.1901,-0.116486,0.984434,0.131607,0.432043
-4.81599,51.0784,8.67533,-0.405123,0.900826,-0.156166,0.571791
1.30085,46.2061,-30.7056,0.0151908,0.989485,0.143835,0.400738
2.75347,55.5367,-23.0781,-0.112505,0.984267,0.136238,0.595621
31.8413,50.5606,7.8681,0.528763,0.513801,-0.675588,0.529156
34.4413,42.6667,4.34705,0.516811,0.539088,-0.665049,0.515632
-16.2643,70.0642,11.3601,-0.100822,0.672829,-0.732895,0.833528
-4.30448,52.7973,-20.2469,-0.135428,0.98112,0.138071,0.568256
-3.82505,33.2363,2.91822,-0.367878,0.884551,0.286766,0.254402
-17.2288,57.3323,5.43082,-0.341923,0.788773,-0.510809,0.752956
0.710821,54.185,-23.5555,-0.101727,0.985156,0.138272,0.572766
-16.6564,12.2529,9.36417,-0.300731,0.830764,0.468393,0.0511744
-6.6084,47.3138,-25.4539,-0.0290992,0.988448,0.148737,0.441452
3.78606,40.0306,0.942578,-0.139799,0.975391,0.170493,0.33899
-23.7302,15.5593,9.18446,-0.31578,0.822377,0.473264,0.147569
3.41939,49.4209,-33.2694,0.0284954,0.990075,0.137618,0.455417
-12.6304,64.7967,2.93445,-0.264414,0.746935,-0.61006,0.861081
-16.1772,22.484,14.134,-0.36337,0.81623,0.449144,0.25084
-13.055,58.0346,10.8038,-0.311448,0.776085,-0.548355,0.682276
-8.43203,40.1436,14.3942,-0.409524,0.867457,0.282505,0.46789
-2.18504,52.0044,-10.7147,-0.2716,0.958277,0.0890968,0.580531
-13.9989,57.5864,10.1562,-0.315448,0.77643,-0.545572,0.688454
-3.08001,50.1862,-34.7035,0.0512697,0.98903,0.138534,0.466095
-11.6658,25.7746,7.4997,-0.386216,0.819295,0.423784,0.215417
11.681,43.8628,-4.45842,-0.0604704,0.993611,0.095294,0.402786
-7.52149,46.4812,4.00203,-0.393961,0.919115,0.00464438,0.523896
-12.9797,56.1,8.34736,-0.351819,0.801858,-0.482956,0.682707
-0.916611,40.9001,-4.03667,-0.197258,0.965363,0.170772,0.368444
26.9291,34.8456,9.38582,0.466676,0.63654,-0.614028,0.284862
-3.61232,32.9878,4.62971,-0.377154,0.877015,0.297655,0.257269
23.2397,39.3346,7.03096,0.414711,0.721158,-0.554928,0.335034
-0.329856,57.1299,-17.1201,-0.188905,0.973675,0.12756,0.64957
20.3279,45.0983,3.90804,0.350278,0.805177,-0.478534,0.429298
1.38582,52.5067,-22.8267,-0.0989877,0.985537,0.137541,0.541433
0.0044607,47.5024,7.10938,-0.328476,0.941474,0.0756947,0.498307
33.8246,47.772,8.40181,0.530004,0.515038,-0.673671,0.513115
-13.5368,76.4838,12.176,-0.0255888,0.647449,-0.761679,0.893816
37.2598,43.7386,7.22311,0.536281,0.496545,-0.682529,0.522356
-12.2043,70.4067,4.50841,-0.15638,0.697994,-0.69882,0.921179
-10.6413,19.8935,11.9824,-0.377924,0.806203,0.455203,0.152538
-14.7572,62.4649,-0.305007,-0.318622,0.775101,-0.545618,0.870871
1.27729,41.6339,-37.0621,0.0516087,0.987398,0.149607,0.296711
15.5249,41.122,-2.78713,0.0770033,0.993284,-0.0863584,0.374485
2.66721,43.9904,-8.96784,-0.199491,0.968838,0.146819,0.405383
2.46218,56.1602,-21.3199,-0.131438,0.982154,0.13453,0.612003
-24.652,21.6117,12.4861,-0.337153,0.816638,0.468434,0.279896
-15.6295,54.8957,6.39206,-0.369171,0.810548,-0.45467,0.699834
-5.93675,57.8539,8.72378,-0.355168,0.816579,-0.455033,0.665327
-23.3487,20.4673,11.7588,-0.334818,0.816714,0.469974,0.246717
-2.68129,55.0977,-22.1417,-0.119397,0.983128,0.138581,0.601436
-12.9685,62.6678,9.48882,-0.241035,0.736743,-0.631752,0.757014
-1.89896,54.5329,-3.39768,-0.363757,0.928874,-0.0698126,0.641252
2.66102,42.8814,-13.9962,-0.195116,0.971476,0.134777,0.375499
-11.7395,29.6007,14.8688,-0.402957,0.827441,0.39111,0.333717
6.85401,46.0618,-16.5189,-0.173908,0.976347,0.128464,0.415874
-14.351,59.585,2.77088,-0.335275,0.786122,-0.519233,0.793861
-6.50018,49.8144,-31.3596,0.0246882,0.989273,0.143978,0.467399
31.9665,44.092,8.25108,0.523735,0.522888,-0.672525,0.458024
-11.317,72.0928,20.0499,-0.018223,0.642984,-0.765663,0.72131
-9.06064,57.4478,6.81937,-0.361843,0.818853,-0.445588,0.694037
34.7069,42.0312,12.6836,0.54595,0.464398,-0.697333,0.409515
-1.68823,56.0976,-23.2355,-0.103591,0.984821,0.139268,0.615164
14.0452,38.2876,9.09343,0.194052,0.93712,-0.290087,0.266703
26.2376,48.0686,3.95602,0.470408,0.630801,-0.617095,0.504737
-5.17669,41.4484,3.5474,-0.345116,0.922908,0.170689,0.416825
-11.8186,69.343,14.0933,-0.0857286,0.66899,-0.738311,0.775921
-5.11546,36.9436,12.8303,-0.405151,0.864437,0.29766,0.381219
3.56428,42.1769,2.39502,-0.171765,0.974488,0.144467,0.381624
37.1457,45.5258,7.06696,0.538134,0.49319,-0.683502,0.540879
-8.00278,79.9837,11.04,-0.00496527,0.64372,-0.765245,0.949538
-16.9568,31.8631,15.6335,-0.388007,0.837609,0.384528,0.415739
-1.90679,48.5599,-31.0102,0.0281999,0.990068,0.137729,0.445573
21.5303,35.2156,8.36662,0.37735,0.773475,-0.509258,0.249407
12.0125,42.1383,-2.95562,-0.0225791,0.997777,0.0627029,0.376911
-3.22787,50.3049,-8.8214,-0.295013,0.95326,0.0652908,0.56033
-4.48016,55.4969,4.10797,-0.397312,0.878678,-0.264703,0.654256
-16.017,72.105,6.54294,-0.113695,0.678669,-0.725591,0.926429
-10.5428,47.3809,3.70542,-0.411586,0.906143,-0.0974759,0.561626
-1.41788,49.2511,4.7108,-0.35504,0.934843,0.00399971,0.533657
-8.63686,41.3803,12.1075,-0.405772,0.876707,0.25833,0.476057
0.630879,54.4927,-6.23284,-0.307443,0.950169,0.051547,0.621248
0.170657,45.9948,-9.50213,-0.240667,0.963313,0.118773,0.455181
-12.0607,24.1527,10.7773,-0.385069,0.813468,0.43588,0.219
19.3522,34.7973,0.959104,0.23842,0.915573,-0.323856,0.273345
-6.15597,45.7942,-38.7266,0.0653675,0.98762,0.142597,0.366555
-22.2563,18.5549,8.37671,-0.327912,0.816792,0.474683,0.178959
-14.1845,30.0025,7.93257,-0.382303,0.842139,0.380324,0.306962
-3.70212,50.1951,-19.3488,-0.146905,0.979601,0.137117,0.52037
23.1138,33.548,9.12634,0.409753,0.729301,-0.547926,0.230699
5.55935,53.5612,-7.08033,-0.267567,0.958318,0.100172,0.577005
-3.20817,53.5278,-27.1788,-0.0394904,0.989107,0.141801,0.554015
15.4363,41.9796,8.00618,0.221254,0.913275,-0.342017,0.341301
-7.90671,34.3635,14.9408,-0.414627,0.843102,0.342438,0.37691
3.10258,49.5387,-1.29217,-0.267954,0.960518,0.0748749,0.518935
-2.06396,54.4086,-30.773,-0.00331998,0.990429,0.137987,0.559203
10.436,45.558,4.75403,-0.0123401,0.999872,-0.010194,0.430539
-10.163,42.3602,11.8854,-0.406047,0.878579,0.251445,0.503187
-12.444,34.8027,13.4051,-0.409132,0.844008,0.346788,0.410628
-6.71856,44.1068,10.1817,-0.396915,0.898875,0.185691,0.495175
-6.21242,30.1236,4.51132,-0.402152,0.846827,0.348076,0.225534
-5.63491,41.9154,-28.9594,0.0238126,0.98808,0.152085,0.322788
-0.800418,48.1208,-14.6578,-0.207996,0.970186,0.12441,0.48758
5.64826,52.7434,-23.3284,-0.0994039,0.985951,0.134236,0.536546
27.3673,42.3575,10.9739,0.508817,0.551831,-0.660748,0.361836
-6.84845,71.6464,16.3374,-0.0325291,0.650552,-0.758765,0.76583
-3.89143,45.4787,-37.4022,0.0663625,0.987657,0.141879,0.366218
31.932,43.2663,8.76234,0.524115,0.521005,-0.673689,0.442572
-4.08106,45.1569,-36.267,0.0642825,0.98777,0.142048,0.363278
-13.9708,71.5571,18.5569,-0.0317202,0.647401,-0.761489,0.739914
10.7585,33.2079,3.70427,0.0666852,0.992074,-0.106497,0.197149
0.413516,57.4916,-15.072,-0.213431,0.969348,0.121706,0.658983
-8.80442,63.9152,-0.380831,-0.320402,0.784113,-0.531516,0.858345
16.4448,41.6292,7.60352,0.252112,0.890453,-0.378858,0.33713
3.22099,46.6815,6.07238,-0.256298,0.961322,0.100854,0.470141
18.9346,39.6215,8.6552,0.338397,0.811859,-0.475787,0.299025
20.1178,43.7953,7.26838,0.396255,0.739682,-0.543923,0.374543
-11.3875,62.1957,0.929331,-0.325327,0.78395,-0.528758,0.833661
2.41604,42.0587,-6.08948,-0.159611,0.971853,0.173278,0.373498
-6.35623,58.1195,8.27941,-0.354079,0.816025,-0.456872,0.675479
23.0778,40.6791,12.7975,0.477133,0.613123,-0.629622,0.285069
-3.36952,54.8708,-4.32072,-0.379205,0.917866,-0.11716,0.660045
-12.1557,60.7861,9.34363,-0.277919,0.757966,-0.590126,0.730601
-5.54916,65.5013,5.92718,-0.244005,0.747667,-0.617621,0.806614
1.9657,45.228,-12.9312,-0.210307,0.968907,0.130349,0.425223
26.9692,46.833,16.9057,0.545113,0.463203,-0.698781,0.32219
-15.3046,69.6557,2.04004,-0.184802,0.707564,-0.682057,0.953465
19.2777,43.5134,1.00726,0.26152,0.897696,-0.35461,0.421596
-3.3579,49.1544,-38.2897,0.0704064,0.987748,0.139272,0.435504
9.25174,47.6463,-8.16859,-0.231724,0.964399,0.127434,0.449838
-1.6691,51.1575,-23.253,-0.0906969,0.985774,0.141507,0.519983
-11.7677,50.5031,2.68077,-0.415892,0.880721,-0.226635,0.627811
-20.8053,13.0063,10.2025,-0.303304,0.828506,0.470728,0.0967099
-6.94313,48.3,-38.7473,0.065611,0.987667,0.142162,0.414046
0.106619,50.6684,1.15521,-0.32657,0.945082,0.0130913,0.553218
-5.76659,30.7161,15.9522,-0.419145,0.828061,0.372333,0.309981
-1.2943,48.8366,2.86434,-0.332172,0.942654,0.0326286,0.526854
-13.4869,55.9731,6.65814,-0.361348,0.808033,-0.465306,0.699625
-5.17391,38.972,1.38452,-0.326454,0.922826,0.204502,0.363866
31.2479,45.371,14.4717,0.545037,0.465645,-0.697215,0.383572
1.00533,40.0799,5.18956,-0.267077,0.947473,0.175968,0.357978
-12.2592,67.335,-0.0276788,-0.251649,0.740361,-0.623329,0.931281
-10.5247,82.3075,11.9789,0.00411898,0.639635,-0.768668,0.966249
-6.88285,76.3857,8.11595,-0.0382468,0.655878,-0.753897,0.943814
24.8607,35.006,6.36432,0.412659,0.726189,-0.549875,0.293526
-13.0033,19.8601,9.61757,-0.362807,0.80961,0.461415,0.149047
23.9544,42.807,0.122804,0.359843,0.799546,-0.480872,0.452282
19.9516,37.074,4.23381,0.297506,0.863901,-0.406405,0.299374
0.976535,45.0893,-11.1315,-0.223164,0.966292,0.128369,0.430472
14.5259,42.955,9.10245,0.199003,0.929114,-0.311682,0.352037
-6.61994,51.8873,-6.56867,-0.375602,0.923447,-0.0785437,0.629336
12.6322,46.7616,-2.62567,-0.0562063,0.997552,0.0415961,0.455088
-18.8354,27.575,4.74503,-0.343241,0.837897,0.424398,0.271276
21.7349,42.9687,8.21452,0.445017,0.667924,-0.596521,0.359446
1.20254,38.6821,0.0646252,-0.181103,0.964679,0.191301,0.31915
-18.6138,14.7325,5.66623,-0.318868,0.820311,0.474777,0.0701723
-2.18287,55.7567,-20.022,-0.148411,0.979667,0.135006,0.620262
-10.0545,38.1313,4.17435,-0.383545,0.885472,0.26236,0.391711
4.12684,45.6577,-3.15368,-0.191346,0.971399,0.14061,0.440916
-11.3136,28.8465,11.4788,-0.398839,0.827198,0.395817,0.292865
16.7554,45.0564,-2.29927,0.117325,0.981175,-0.153397,0.450875
-15.1807,66.2201,4.59927,-0.222392,0.724144,-0.652807,0.87364
-7.55241,77.3823,15.6825,-0.00947712,0.643273,-0.765578,0.848596
-2.11813,54.1423,-2.98488,-0.366054,0.927538,-0.0753492,0.635233
-0.125837,46.75,-18.8177,-0.145697,0.979869,0.136491,0.446394
-0.733321,55.9928,-8.38431,-0.29124,0.953691,0.0751863,0.65334
-15.116,60.2997,6.79041,-0.292106,0.760232,-0.580277,0.767411
8.53817,46.5705,-4.42949,-0.21036,0.968734,0.131541,0.442359
-8.81539,69.7977,9.37733,-0.116042,0.684956,-0.719284,0.840059
-8.37284,47.3782,-3.25884,-0.375303,0.926306,-0.0332489,0.551334
-1.61803,47.1544,-12.856,-0.230844,0.965846,0.117695,0.478366
-8.2205,76.0182,17.1314,-0.0111035,0.642613,-0.766111,0.810814
-3.23542,51.3567,-8.26719,-0.303717,0.95121,0.0543638,0.582689
32.5428,47.5309,14.7198,0.544931,0.467551,-0.696022,0.413887
29.0562,46.6136,13.2162,0.537943,0.483998,-0.690191,0.391707
13.4637,40.3787,1.2797,0.0787785,0.991686,-0.101746,0.342349
30.5787,42.8821,18.4846,0.553334,0.440147,-0.707172,0.29913
-6.24515,54.4373,-0.700058,-0.399762,0.892119,-0.21051,0.668272
24.9111,40.7233,8.75635,0.460944,0.645843,-0.608619,0.348458
0.235744,49.0519,-5.46208,-0.283961,0.955782,0.0764724,0.520801
8.10237,47.9366,-22.5988,-0.0988469,0.986095,0.133587,0.442566
-13.145,36.85,11.908,-0.4121,0.848659,0.331589,0.438687
-15.306,60.3665,1.66542,-0.330681,0.782002,-0.528321,0.822323
-5.94537,49.9702,-35.3611,0.0557862,0.98851,0.140484,0.457615
-2.72594,54.514,-26.9297,-0.0434533,0.989042,0.141096,0.573634
-4.62629,51.69,3.91369,-0.395122,0.909585,-0.128582,0.593948
3.92424,45.2796,-3.54731,-0.183478,0.971955,0.147103,0.434054
27.8156,45.4823,18.4874,0.549261,0.451552,-0.703145,0.295532
18.7793,38.035,-2.17405,0.199005,0.943829,-0.263788,0.336672
2.03836,37.8802,-2.0322,-0.144527,0.97258,0.18221,0.297648
-10.5915,27.6891,16.2594,-0.405579,0.818258,0.407381,0.305949
16.5989,37.7062,5.60791,0.229525,0.917704,-0.324249,0.283857
-1.58642,47.0687,-2.52333,-0.29049,0.953506,0.0802618,0.49539
17.9257,37.2932,9.98425,0.326395,0.828891,-0.45432,0.245946
-21.7639,18.0671,9.23733,-0.322113,0.820803,0.471725,0.175738
-10.872,35.8558,12.9593,-0.412406,0.848337,0.332033,0.411381
-2.19175,45.1659,-3.18169,-0.275181,0.955394,0.107232,0.46154
28.356,45.3116,11.7438,0.527202,0.510478,-0.679316,0.392124
-6.55211,33.7333,8.72005,-0.401519,0.857317,0.322165,0.315543
20.9152,42.1859,13.3679,0.460893,0.640005,-0.614793,0.280865
9.34854,50.223,-6.74723,-0.237326,0.963938,0.120416,0.499651
-15.6389,70.4097,5.95592,-0.148506,0.69222,-0.706242,0.912168
-17.375,29.2896,6.37461,-0.357316,0.844939,0.397999,0.30499
6.12135,51.4261,-2.45661,-0.248778,0.964073,0.0931322,0.540972
-3.10319,50.8442,-24.2224,-0.0738643,0.986862,0.143693,0.512767
-8.48414,70.5734,7.4846,-0.11813,0.686211,-0.717746,0.874807
-5.37651,58.8376,5.92092,-0.362521,0.826205,-0.431236,0.700025
-4.80219,55.5999,4.59869,-0.397313,0.875484,-0.275082,0.655395
24.4663,45.1685,8.72135,0.486049,0.598975,-0.636385,0.397337
-17.1939,31.3007,5.82007,-0.373558,0.844423,0.383932,0.3345
10.185,42.8341,2.13567,-0.0124026,0.999773,0.0173401,0.382256
6.65354,51.867,-10.5476,-0.241696,0.963295,0.116811,0.535362
-17.1518,69.8596,10.2576,-0.118495,0.67939,-0.724146,0.849294
-6.2449,59.9585,8.00515,-0.327328,0.796221,-0.508811,0.703535
-3.34529,42.3316,-27.6262,0.00578115,0.988419,0.151636,0.335898
-6.59739,35.0195,3.71743,-0.3783,0.880811,0.284712,0.309593
18.0456,43.3534,9.58855,0.375654,0.757003,-0.534631,0.339694
-13.8437,70.6455,10.7226,-0.0947183,0.672027,-0.734444,0.844223
-16.7485,68.8972,14.6159,-0.092083,0.668805,-0.737713,0.772727
-17.9772,64.6523,6.70576,-0.221002,0.72196,-0.655692,0.838152
-19.3611,16.6717,10.858,-0.308566,0.830719,0.46335,0.152424
-6.06043,58.7181,4.09455,-0.370096,0.833496,-0.41026,0.716528
3.19097,40.3311,-0.977286,-0.133494,0.974396,0.18092,0.344725
-3.21218,47.218,-19.3155,-0.1338,0.981122,0.139633,0.461904
9.55443,51.0382,-9.84986,-0.235514,0.964219,0.121717,0.508434
-11.2258,55.4071,-1.74653,-0.402898,0.856216,-0.323368,0.732453
-22.8089,21.118,6.15946,-0.338858,0.810595,0.477609,0.203551
-8.09178,34.4735,4.26382,-0.38859,0.870826,0.301097,0.313424
6.42644,51.2225,-3.3686,-0.246952,0.963901,0.0995445,0.535222
27.8146,37.404,13.8479,0.514275,0.538604,-0.667403,0.275996
-8.40769,59.4947,10.0118,-0.310726,0.781758,-0.540652,0.687904
6.39434,46.436,-8.35262,-0.216157,0.966568,0.137924,0.438831
-2.74579,46.7369,5.26298,-0.355828,0.932981,0.0541561,0.498289
-9.48124,41.3355,2.49966,-0.373006,0.91139,0.173883,0.442583
9.58123,51.7606,-13.5336,-0.213749,0.969058,0.123446,0.516598
-7.12673,69.9467,18.5573,-0.03341,0.649975,-0.759221,0.712588
-11.7162,52.6819,-2.77371,-0.410846,0.878389,-0.244209,0.688763
-15.9759,27.8326,5.31313,-0.358755,0.841156,0.404663,0.262321
8.64324,36.4635,6.20034,0.00499856,0.998916,-0.0462824,0.255786
4.44797,51.7801,-9.46975,-0.253842,0.961039,0.109401,0.545372
18.1892,41.1193,12.0144,0.385907,0.750313,-0.536755,0.27963
-8.37182,42.432,13.1222,-0.405629,0.878822,0.25127,0.49627
-17.443,28.8268,5.41616,-0.352759,0.844718,0.402509,0.289484
-22.2403,23.3322,7.32067,-0.339538,0.818283,0.463818,0.245689
-6.28537,44.8924,8.72555,-0.391468,0.909672,0.13874,0.498033
35.6479,46.8951,12.0383,0.542049,0.482329,-0.688143,0.474495
-4.9005,41.7881,2.83398,-0.336683,0.927217,0.164054,0.419545
-5.05434,49.1734,8.33285,-0.399301,0.915487,-0.0494127,0.550074
-14.1389,35.9095,5.68249,-0.398857,0.856294,0.328136,0.390879
22.9655,37.074,7.01633,0.395387,0.749821,-0.530507,0.300635
3.77518,49.9718,-0.102457,-0.265417,0.961465,0.0716798,0.524449
-21.2942,23.0124,15.0345,-0.345714,0.822828,0.451039,0.301828
-18.6412,15.5125,10.5943,-0.30308,0.832868,0.463113,0.126851
-9.50087,64.4848,4.01319,-0.263648,0.752646,-0.603336,0.829333
-9.53562,24.2464,15.7841,-0.402172,0.808352,0.429913,0.241574
-12.4256,64.6932,14.8247,-0.152255,0.695643,-0.702068,0.709367
-1.98958,46.0818,-5.96666,-0.270456,0.957601,0.0992658,0.474907
1.54629,50.0151,4.36504,-0.314704,0.94838,0.0391873,0.533745
29.1258,50.5495,12.0003,0.536544,0.49053,-0.686659,0.446611
-4.5725,64.0554,2.28982,-0.305775,0.78268,-0.542138,0.810791
0.0886927,47.6718,-37.4038,0.0656124,0.988111,0.139038,0.410902
1.56886,39.1496,-35.3446,0.0462818,0.987185,0.152719,0.25412
-2.24384,47.2208,-20.7242,-0.112169,0.98351,0.141868,0.454374
-10.2679,32.7582,5.68135,-0.398371,0.852186,0.339234,0.308214
32.9297,44.6111,11.131,0.537608,0.488603,-0.6872,0.43668
2.71914,56.0078,-21.2313,-0.132389,0.982095,0.134022,0.608678
13.6188,47.2089,0.0557656,0.0387318,0.998519,-0.0382141,0.467195
-9.34677,43.3047,-33.3544,0.0441313,0.987578,0.150803,0.333028
-12.839,36.0225,7.59438,-0.403725,0.855462,0.324333,0.395072
4.84385,51.0175,-14.14,-0.211842,0.969596,0.1225,0.520816
2.87406,56.2467,-21.7316,-0.129348,0.982432,0.134522,0.611677
3.01221,43.5917,-23.9572,-0.0642957,0.987208,0.145897,0.366373
12.7567,44.1454,-4.4724,-0.0337316,0.998027,0.0529506,0.412162
13.4293,42.8128,-3.00889,0.000242729,0.999851,0.0172683,0.393655
-13.4605,15.8452,3.60886,-0.341995,0.806873,0.481659,0.0357033
26.3194,42.9313,8.23555,0.483995,0.603864,-0.633322,0.392756
-8.56797,37.571,2.43437,-0.370033,0.895101,0.248736,0.363682
-10.0823,78.4241,14.4204,-0.00599148,0.641836,-0.766819,0.881857
8.76233,35.4122,5.65556,0.0188137,0.998195,-0.057026,0.236305
-2.53845,46.4845,8.94341,-0.369635,0.924004,0.0979075,0.49811
-11.1385,52.3059,-1.40519,-0.411374,0.879469,-0.239387,0.671253
-14.69,26.896,14.6141,-0.381566,0.82532,0.416239,0.312438
-17.3023,59.9054,4.5633,-0.31422,0.770765,-0.554244,0.798375
3.04607,42.1312,-37.0926,0.0498279,0.987543,0.149252,0.307404
-3.30423,53.0401,-21.0104,-0.128878,0.981927,0.138597,0.567487
-1.90616,47.8044,-34.9045,0.058676,0.988578,0.138821,0.419722
