32.5101,54.723,9.27986,-0.150356,0.988632,0,0.884259
42.6187,35.0646,0.417421,-0.16628,0.986079,0,0.486039
16.2693,32.3897,3.73808,0.396415,0.918071,0,0.512824
17.6472,20.0212,3.2589,0.153602,0.988133,0,0.36091
47.562,51.928,4.82741,-0.161805,0.986823,0,0.804405
16.2802,20.4967,8.01859,0.274847,0.961488,0,0.366128
40.9599,48.4681,14.5831,-0.165177,0.986264,0,0.749717
37.8851,24.1432,2.75473,-0.159898,0.987133,0,0.291617
12.7471,16.5089,9.94635,0.643483,0.765461,0,0.312656
40.3502,57.937,0.24908,-0.148012,0.988986,0,0.946204
36.0595,32.6223,2.35556,-0.161868,0.986812,0,0.474698
5.96527,14.4279,5.29664,0.981916,-0.189318,0,0.167015
37.7777,37.2167,10.1125,-0.170942,0.985281,0,0.549619
36.6044,28.803,11.5796,-0.170847,0.985298,0,0.395251
37.1608,56.8142,12.4937,-0.156398,0.987694,0,0.925524
19.3236,22.0382,6.09841,0.107857,0.994166,0,0.375027
0.387019,2.72241,7.90838,0.976657,-0.214804,0,0.00927063
50.3985,49.2944,0.319656,-0.162829,0.986654,0,0.741877
27.7044,59.5587,14.6704,-0.152868,0.988247,0,0.989833
3.00128,6.95012,8.57915,0.97583,-0.21853,0,0.06946
18.2047,2.80919,14.6162,0.0281693,0.999603,0,0.173162
6.38896,0.885467,10.1759,0.998356,-0.0573258,0,0.113609
35.8989,23.8296,11.6652,-0.164534,0.986371,0,0.296544
15.7155,8.40079,8.17108,0.0818956,0.996641,0,0.255876
7.97713,12.1047,7.55,0.998162,-0.0606056,0,0.194903
20.3838,58.5381,14.5833,-0.140995,0.99001,0,0.960283
36.5485,47.2544,14.0137,-0.163234,0.986587,0,0.73257
34.0001,33.9559,7.92685,-0.168568,0.98569,0,0.513881
16.3261,6.81683,8.58091,0.0437809,0.999041,0,0.236705
25.5539,51.7059,3.79575,-0.131893,0.991264,0,0.818554
29.0934,50.633,8.08509,-0.146783,0.989169,0,0.796735
28.7907,25.5951,9.28938,-0.134415,0.990925,0,0.38077
18.2942,3.6534,0.206082,0.0265285,0.999648,0,0.188125
44.1424,53.3105,3.69402,-0.156794,0.987631,0,0.841756
34.5896,32.0134,0.330496,-0.15817,0.987412,0,0.472629
8.29257,38.7234,2.64077,0.748425,0.66322,0,0.479324
33.3249,58.2885,5.75149,-0.143817,0.989604,0,0.960175
24.7241,53.9313,8.24506,-0.141721,0.989907,0,0.865562
20.8646,49.1884,2.29851,-0.0963871,0.995344,0,0.759808
26.7859,25.7848,7.64425,-0.10466,0.994508,0,0.398345
7.67297,32.6245,1.40902,0.921878,0.38748,0,0.366426
4.62351,31.1445,0.376212,0.997916,0.0645274,0,0.276094
36.753,47.5621,14.631,-0.162976,0.98663,0,0.738017
21.386,30.1931,8.58287,-0.0500892,0.998745,0,0.509036
39.4663,28.1184,12.2596,-0.171726,0.985145,0,0.364118
12.8246,15.7616,14.3959,0.734384,0.678734,0,0.307733
0.37942,33.8789,7.54569,0.99952,0.0309943,0,0.223494
17.1641,22.9183,7.15411,0.246819,0.969062,0,0.392326
8.97382,30.4786,1.78048,0.899898,0.4361,0,0.366275
35.5707,48.2469,10.514,-0.159393,0.987215,0,0.75183
17.5068,39.5021,14.3768,0.316383,0.948631,0,0.610035
10.432,2.80218,2.68521,0.821498,0.570211,0,0.164985
41.7098,51.5491,0.400202,-0.154399,0.988009,0,0.8102
14.1047,29.6111,14.1057,0.625196,0.780468,0,0.449046
40.9872,57.3778,0.333107,-0.149203,0.988807,0,0.93304
41.9586,52.0549,0.823606,-0.154449,0.988001,0,0.820134
4.92923,59.4573,12.7112,-0.0165355,0.999863,0,0.927589
16.2792,37.5403,8.06804,0.416238,0.909256,0,0.575143
12.68,13.7311,2.38848,0.652887,0.757455,0,0.290208
50.2471,48.8844,0.319656,-0.16306,0.986616,0,0.733788
0.710053,19.8904,13.9752,0.973111,-0.230338,0,0.0880964
20.3515,59.0969,14.3522,-0.141074,0.989999,0,0.972478
17.7764,13.3435,8.63682,0.0542936,0.998525,0,0.311714
3.47009,16.9004,13.0639,0.973044,-0.230621,0,0.128988
44.1801,51.7078,12.6948,-0.164775,0.986331,0,0.807915
47.1243,42.2447,3.72626,-0.16645,0.98605,0,0.608678
9.56781,7.51381,6.50428,0.95034,0.311214,0,0.195196
0.421899,32.2003,7.11235,0.998469,-0.0553187,0,0.201024
50.8193,48.0547,0.259748,-0.163775,0.986498,0,0.714709
35.0821,31.1134,9.47902,-0.170162,0.985416,0,0.451194
49.6743,42.5523,14.316,-0.171977,0.985101,0,0.605506
17.2502,50.4815,11.7067,-0.0610848,0.998133,0,0.785543
11.7086,44.603,14.1776,0.333106,0.942889,0,0.639052
5.18387,51.2935,12.2506,0.211253,0.977431,0,0.728979
40.6675,25.7612,11.3596,-0.170919,0.985285,0,0.308658
2.66646,3.08779,7.23142,0.977914,-0.209007,0,0.0553202
26.0084,55.9071,13.7031,-0.151252,0.988495,0,0.909078
41.946,25.5187,0.808046,-0.164705,0.986343,0,0.297635
11.7978,56.2875,0.426653,-0.0329391,0.999457,0,0.888951
31.3422,58.5776,3.37744,-0.138113,0.990416,0,0.967923
29.7038,27.4293,14.5007,-0.153665,0.988123,0,0.412875
51.2103,39.9461,7.30578,-0.169528,0.985525,0,0.547163
38.3938,34.3523,1.17458,-0.164582,0.986363,0,0.493517
0.521179,36.1289,4.64886,0.976436,0.215806,0,0.266029
39.9202,28.2446,14.6476,-0.172598,0.984992,0,0.364208
15.6243,22.9826,3.70201,0.45707,0.889431,0,0.389024
0.873982,50.8946,13.2038,0.267935,0.963437,0,0.684799
27.7911,56.9193,4.1704,-0.135772,0.99074,0,0.931857
17.6285,7.2173,11.9434,0.028076,0.999606,0,0.237432
9.16715,58.3744,13.8978,-0.0538935,0.998547,0,0.923547
4.65351,14.0906,7.21991,0.975381,-0.220528,0,0.137523
7.33236,19.3846,12.461,0.994433,-0.105372,0,0.226438
12.1468,29.7876,6.74327,0.750623,0.660731,0,0.420358
15.1084,2.65923,7.62043,0.154314,0.988022,0,0.172542
15.0513,47.5773,6.30713,0.101762,0.994809,0,0.720584
18.5702,52.8345,12.2422,-0.111878,0.993722,0,0.836145
39.4905,26.8303,11.6889,-0.170692,0.985325,0,0.337534
1.30961,12.0197,2.06325,0.978958,-0.204063,0,0.0568042
41.9452,23.6282,1.65864,-0.164091,0.986445,0,0.258204
0.856137,0.31624,6.75974,0.97756,-0.210655,0,0.0256636
16.8713,4.11872,12.0104,0.063186,0.998002,0,0.196862
3.91318,57.3531,11.7006,0.0141872,0.999899,0,0.874665
35.2472,31.3192,5.92833,-0.164288,0.986412,0,0.454803
9.25152,1.51521,6.38718,0.927864,0.37292,0,0.141869
4.73049,42.8054,14.5976,0.698144,0.715957,0,0.502244
8.79446,29.9197,11.552,0.945716,0.324993,0,0.355363
15.8863,56.6889,5.59801,-0.0915485,0.995801,0,0.911844
38.2538,55.7826,14.1027,-0.158727,0.987323,0,0.90262
42.4424,57.0552,14.7473,-0.161889,0.986809,0,0.922958
10.3215,0.778851,12.2327,0.8461,0.533024,0,0.14186
22.2022,49.6565,12.4975,-0.143116,0.989706,0,0.77172
0.525304,25.6825,13.9883,0.978912,-0.204283,0,0.134222
31.3007,31.4746,3.62257,-0.15226,0.988341,0,0.486411
38.301,40.6252,9.08257,-0.168312,0.985734,0,0.60896
34.866,34.8421,0.200383,-0.161773,0.986828,0,0.523481
5.01922,27.6684,7.39553,0.996399,-0.0847934,0,0.24701
50.0074,42.5167,12.948,-0.171787,0.985134,0,0.603576
17.0301,52.2371,5.75288,-0.0623587,0.998054,0,0.820414
10.4445,44.3633,14.6096,0.40077,0.916179,0,0.620881
16.6696,18.17,7.06414,0.184603,0.982813,0,0.346498
46.0271,52.3088,11.4981,-0.165333,0.986238,0,0.815679
43.9398,32.4213,12.9892,-0.173044,0.984914,0,0.426755
20.9619,22.5509,6.96232,0.0467493,0.998907,0,0.371252
47.8944,51.5708,0.667256,-0.160297,0.987069,0,0.796562
45.2286,31.6901,0.929595,-0.166999,0.985957,0,0.40615
13.1637,54.0874,5.39286,-0.0369744,0.999316,0,0.846788
14.5676,34.931,0.80459,0.521479,0.853264,0,0.522087
21.6626,22.8768,10.6103,0.0239304,0.999714,0,0.373476
3.36305,7.55137,5.00158,0.976638,-0.21489,0,0.0780322
48.066,52.4985,3.61076,-0.160913,0.986969,0,0.814934
6.54324,19.4928,14.2003,0.986834,-0.161737,0,0.210755
33.2008,52.0638,3.33881,-0.143626,0.989632,0,0.829042
49.0901,29.5973,2.3638,-0.167572,0.98586,0,0.345643
33.4266,31.9226,6.0284,-0.162355,0.986732,0,0.479234
2.68224,48.1015,11.2449,0.420555,0.907267,0,0.618402
51.697,44.3775,3.59059,-0.166592,0.986026,0,0.636194
44.7733,31.7839,3.45161,-0.1676,0.985855,0,0.410348
37.722,56.6264,10.6964,-0.155785,0.987791,0,0.921189
10.9235,25.8855,8.37949,0.894301,0.447466,0,0.35404
3.65717,54.657,9.4045,0.0760857,0.997101,0,0.80756
23.2235,51.0513,12.0087,-0.147088,0.989123,0,0.802889
45.8091,50.7347,0.428585,-0.159753,0.987157,0,0.784394
31.1053,24.8491,0.40371,-0.137001,0.990571,0,0.349796
9.6369,34.4288,13.9856,0.811245,0.584706,0,0.433871
20.5914,23.008,8.05723,0.0578687,0.998324,0,0.38222
45.1042,53.2123,10.5376,-0.163529,0.986539,0,0.836969
2.27921,57.5622,13.1556,0.0136531,0.999907,0,0.874083
0.920578,19.5767,8.90742,0.973244,-0.229773,0,0.0915632
16.7126,8.21722,13.8528,0.0459459,0.998944,0,0.248633
45.6937,46.6758,7.09838,-0.165635,0.986187,0,0.701949
51.268,46.6699,0.369525,-0.16487,0.986315,0,0.684566
3.20082,42.5832,14.5976,0.743147,0.669129,0,0.471216
37.1298,57.1483,0.768985,-0.143452,0.989657,0,0.933467
41.6716,54.4747,3.97933,-0.153155,0.988202,0,0.870762
11.4124,39.6592,14.6744,0.585299,0.810818,0,0.546223
19.7629,50.8303,2.95661,-0.0858203,0.996311,0,0.795193
38.3075,34.007,4.92129,-0.166468,0.986047,0,0.487279
47.9974,29.5064,6.47969,-0.169806,0.985477,0,0.348303
18.1107,51.1919,5.85779,-0.0740899,0.997252,0,0.801031
1.86034,14.8903,14.6158,0.974831,-0.222947,0,0.0811092
6.44498,41.3402,11.1907,0.714142,0.700001,0,0.498672
30.8706,27.1955,11.4394,-0.157108,0.987581,0,0.399943
16.2246,20.2184,6.18364,0.264851,0.964289,0,0.362224
7.323,6.07698,6.00717,0.995704,-0.0925919,0,0.147156
16.3001,33.6667,8.0289,0.418112,0.908396,0,0.52767
33.4426,57.3237,5.635,-0.143764,0.989612,0,0.939543
15.1163,42.7273,11.3113,0.293941,0.955824,0,0.636386
10.8489,40.3019,13.7535,0.572493,0.81991,0,0.549334
17.1036,50.4645,13.7347,-0.0563509,0.998411,0,0.785605
18.0572,31.1366,12.9101,0.227346,0.973814,0,0.511356
5.89762,53.8459,11.9898,0.0728865,0.99734,0,0.798765
43.0939,41.3887,9.0836,-0.168968,0.985622,0,0.606084
46.8883,30.6862,12.3179,-0.172986,0.984924,0,0.377592
10.4887,25.0742,9.99194,0.929119,0.36978,0,0.337999
0.353281,32.9188,2.00862,0.999755,-0.0221298,0,0.205712
39.3094,55.4808,14.6621,-0.159696,0.987166,0,0.894977
21.6868,31.7391,2.58118,-0.0550501,0.998484,0,0.538197
19.6741,56.3842,12.3899,-0.13384,0.991003,0,0.912902
46.1557,34.1301,8.67869,-0.170913,0.985286,0,0.451047
46.741,31.5757,1.95774,-0.167379,0.985893,0,0.396793
12.3184,6.46857,12.6005,0.527459,0.84958,0,0.219631
26.8363,51.4674,0.809144,-0.13182,0.991274,0,0.814759
38.122,40.294,12.4048,-0.170248,0.985401,0,0.603195
14.9096,58.4624,8.36728,-0.0972084,0.995264,0,0.94801
37.1119,41.7181,2.77033,-0.162504,0.986708,0,0.632255
46.6941,54.0489,0.34385,-0.157881,0.987458,0,0.851027
5.64558,39.6728,2.42129,0.812727,0.582644,0,0.447822
9.06233,9.80328,4.68545,0.995813,0.0914092,0,0.201336
16.1782,20.7907,10.1217,0.298853,0.954299,0,0.369062
2.82635,14.9597,12.2126,0.973759,-0.227582,0,0.103438
21.5718,25.7785,5.57573,0.0117364,0.999931,0,0.425056
47.6786,45.5326,4.47962,-0.165507,0.986209,0,0.673077
22.104,31.2557,7.21933,-0.0729846,0.997333,0,0.530331
2.02486,45.5969,0.979759,0.611257,0.791432,0,0.534732
2.10697,21.2196,5.06388,0.97519,-0.221369,0,0.129005
32.1004,30.3024,10.0498,-0.167861,0.985811,0,0.455742
7.00863,50.3774,12.1585,0.208147,0.978097,0,0.721725
3.04835,13.4658,2.63019,0.976426,-0.215852,0,0.102213
42.4461,24.2219,0.597644,-0.164532,0.986372,0,0.268166
17.1965,21.3991,6.62835,0.216426,0.976299,0,0.374743
41.0597,39.5546,4.32072,-0.166248,0.986084,0,0.579119
25.2797,21.2221,13.7903,-0.076743,0.997051,0,0.312872
44.9695,26.6366,7.65253,-0.170216,0.985407,0,0.303671
15.7233,29.6385,9.46001,0.428499,0.903542,0,0.469906
1.02806,26.9943,0.66984,0.98349,-0.18096,0,0.154895
19.1201,31.6193,12.6456,0.103728,0.994606,0,0.52884
47.9256,52.6954,14.7215,-0.167368,0.985895,0,0.818768
37.6007,23.5617,10.312,-0.16577,0.986164,0,0.280355
50.0037,31.2771,7.58396,-0.17039,0.985377,0,0.375395
47.0375,53.6965,14.6592,-0.166331,0.98607,0,0.841751
41.4093,54.5361,3.39403,-0.152402,0.988319,0,0.872371
0.989146,45.413,0.628238,0.633009,0.774144,0,0.514966
16.6828,49.5873,0.363784,-0.00202906,0.999998,0,0.767027
17.5508,19.9055,0.525276,0.12412,0.992267,0,0.362642
4.3423,22.5952,8.73508,0.97861,-0.205723,0,0.186305
27.7448,54.5091,2.65882,-0.134477,0.990917,0,0.87971
11.0551,47.5566,1.96829,0.247849,0.968799,0,0.693156
11.3215,53.8901,11.5444,-0.00483247,0.999988,0,0.832971
27.9713,21.656,11.1922,-0.116103,0.993237,0,0.30205
1.65248,40.5804,2.74637,0.846251,0.532784,0,0.393513
0.300553,55.7787,2.66613,0.0750694,0.997178,0,0.823098
38.871,57.4856,5.2428,-0.149815,0.988714,0,0.93834
34.3409,59.1763,5.73621,-0.144754,0.989468,0,0.978645
0.379098,20.3461,8.33783,0.973716,-0.227766,0,0.0845522
6.14771,47.6436,3.75622,0.404709,0.914446,0,0.644051
42.1087,56.4546,3.24299,-0.151916,0.988393,0,0.911701
25.7218,24.1426,3.40626,-0.0792662,0.996853,0,0.370634
16.3629,39.1948,14.5895,0.340432,0.940269,0,0.596702
1.37555,41.902,8.59745,0.795585,0.605842,0,0.419596
43.7935,56.2504,0.564513,-0.153354,0.988171,0,0.903616
46.908,53.3263,0.34385,-0.158455,0.987366,0,0.835443
2.80365,50.2837,12.6053,0.293174,0.956059,0,0.68118
0.338514,17.5294,10.9152,0.97281,-0.231605,0,0.0692501
0.642812,44.0009,14.771,0.660896,0.750478,0,0.474481
0.750259,23.11,1.88917,0.977819,-0.20945,0,0.115352
16.7033,12.0671,14.3536,0.0643953,0.997924,0,0.297695
25.2703,50.6271,14.5201,-0.151602,0.988442,0,0.794012
6.07527,54.5951,10.2809,0.0471566,0.998888,0,0.8185
17.6302,24.8872,8.3332,0.251996,0.967728,0,0.418639
17.3473,47.7293,7.90784,0.022996,0.999736,0,0.729962
30.5948,52.4326,14.5844,-0.154902,0.98793,0,0.835755
23.1257,52.2614,14.6339,-0.146368,0.98923,0,0.829067
3.93685,21.5163,13.1538,0.975797,-0.218678,0,0.169453
33.9593,49.3812,3.19501,-0.147323,0.989088,0,0.774451
23.8019,31.1523,12.6313,-0.136162,0.990687,0,0.523909
51.3005,46.5479,14.6935,-0.171331,0.985214,0,0.682216
7.15059,28.379,5.04627,0.995927,0.090164,0,0.301119
15.7366,48.5288,6.07416,0.0481669,0.998839,0,0.741102
50.5193,46.1823,13.9841,-0.171262,0.985226,0,0.677332
17.7212,46.9253,5.7745,0.0811649,0.996701,0,0.717173
5.40974,41.6003,1.72316,0.762377,0.647133,0,0.486104
11.8865,37.6157,6.32724,0.598694,0.800978,0,0.521301
49.8062,37.2853,4.4549,-0.168401,0.985719,0,0.498991
13.3162,16.5095,6.16495,0.592542,0.805539,0,0.320118
18.1358,13.8935,5.98623,0.0624049,0.998051,0,0.316289
11.5417,21.2659,9.84025,0.897548,0.440916,0,0.325918
21.6013,55.9274,0.422452,-0.11827,0.992982,0,0.906235
8.72178,36.4039,2.9261,0.802523,0.596622,0,0.44697
35.1017,21.7112,3.1071,-0.151879,0.988399,0,0.257465
5.68466,15.8778,11.5666,0.977342,-0.211667,0,0.169296
19.4207,31.6192,13.3857,0.0681082,0.997678,0,0.530222
6.33135,48.7102,9.378,0.327854,0.944729,0,0.673561
49.9277,50.1864,0.343544,-0.162367,0.98673,0,0.762099
48.0254,32.4595,3.86329,-0.168189,0.985755,0,0.408898
50.1334,49.7769,0.6632,-0.162599,0.986692,0,0.752858
17.5005,23.4394,4.2315,0.253857,0.967242,0,0.399189
51.5879,42.7123,6.31947,-0.168164,0.985759,0,0.602047
50.7016,47.9033,4.59322,-0.165335,0.986237,0,0.711911
51.3067,37.3762,14.3388,-0.17278,0.98496,0,0.493693
42.3891,24.8223,1.12007,-0.164819,0.986324,0,0.280818
16.5383,46.0377,10.5686,0.114824,0.993386,0,0.698781
13.9935,18.7506,11.2154,0.555126,0.831766,0,0.342616
11.5836,13.6515,1.97972,0.793099,0.609093,0,0.273928
19.7489,29.6723,4.27422,0.0538898,0.998547,0,0.495214
50.8971,33.3696,9.60555,-0.171676,0.985153,0,0.41433
6.88469,50.2214,13.8181,0.215685,0.976463,0,0.716224
22.4938,26.8565,0.554382,-0.0240398,0.999711,0,0.440691
8.1656,43.2295,0.445213,0.580063,0.814572,0,0.567204
0.183868,59.7988,4.35518,0.00829842,0.999966,0,0.922423
1.98198,36.4614,5.64265,0.963006,0.269478,0,0.306005
27.891,26.4138,12.484,-0.135718,0.990748,0,0.404082
11.1677,47.1474,1.31412,0.257797,0.966199,0,0.68545
0.347968,35.6577,14.7602,0.993074,0.117489,0,0.252765
17.7586,56.1119,14.3167,-0.123115,0.992392,0,0.904489
12.0254,56.8591,12.7908,-0.0658124,0.997832,0,0.901976
12.7611,59.0905,10.5703,-0.084926,0.996387,0,0.954632
24.6786,55.6113,1.24287,-0.128398,0.991723,0,0.901978
1.99075,44.4679,14.0212,0.646716,0.762731,0,0.50526
11.5625,31.0447,6.84786,0.771375,0.63638,0,0.425246
17.2234,20.3814,11.1409,0.18036,0.983601,0,0.365207
24.7361,30.3002,2.43827,-0.107033,0.994255,0,0.501556
3.58101,15.2249,4.11692,0.975344,-0.220689,0,0.122661
43.1455,52.8178,6.88287,-0.159054,0.98727,0,0.833548
18.1585,28.2256,2.58016,0.196826,0.980438,0,0.466039
20.8968,58.3672,14.5833,-0.142627,0.989776,0,0.957045
45.0501,55.3572,0.640882,-0.154929,0.987926,0,0.882144
45.478,55.0569,0.334881,-0.155685,0.987807,0,0.874907
51.4614,43.8178,2.3231,-0.166384,0.986061,0,0.625602
36.5101,23.0717,10.3229,-0.164054,0.986451,0,0.276781
36.3235,55.7309,7.90569,-0.150995,0.988535,0,0.903661
24.5539,31.521,12.3222,-0.141465,0.989943,0,0.529051
8.04606,59.5956,6.89252,-0.0287741,0.999586,0,0.944665
5.53956,17.6922,8.60492,0.977606,-0.210443,0,0.178138
3.33313,21.8235,1.98993,0.978171,-0.207803,0,0.160089
0.388116,30.8547,9.95361,0.994595,-0.103833,0,0.184407
32.2785,30.3329,6.17945,-0.157882,0.987458,0,0.455351
17.2447,23.0929,0.767119,0.265713,0.964052,0,0.396683
45.2763,53.038,2.88745,-0.157863,0.987461,0,0.833302
11.9023,6.71945,9.62432,0.626269,0.779607,0,0.218597
19.1251,31.3464,8.62909,0.100218,0.994966,0,0.525695
36.1216,49.6657,10.573,-0.158604,0.987342,0,0.779055
11.5138,41.675,8.15834,0.467038,0.884237,0,0.582352
49.9413,42.1768,4.19129,-0.167336,0.9859,0,0.597164
7.21826,5.44358,7.86181,0.997632,-0.0687824,0,0.141894
17.5566,59.2179,2.59384,-0.107588,0.994196,0,0.971402
15.5494,53.8402,10.408,-0.0812626,0.996693,0,0.850475
28.9347,57.7509,1.17477,-0.134107,0.990967,0,0.950307
43.7299,53.6587,8.54801,-0.160796,0.986988,0,0.849734
6.60508,0.388916,3.09045,0.999961,-0.00880302,0,0.113097
3.14923,6.9555,12.7209,0.977974,-0.208728,0,0.0731358
16.7169,47.0645,12.2712,0.0635108,0.997981,0,0.717576
12.9264,21.9474,14.5707,0.715223,0.698896,0,0.354308
41.2493,35.668,14.5967,-0.17274,0.984968,0,0.504124
34.5187,47.3521,0.473971,-0.150464,0.988616,0,0.734675
38.8777,32.3505,6.62223,-0.167906,0.985803,0,0.452331
18.9256,51.5185,10.0882,-0.110188,0.993911,0,0.808679
16.9752,39.7525,5.48155,0.357394,0.933954,0,0.610165
41.0514,32.4555,12.5437,-0.172963,0.984928,0,0.442237
8.69511,27.5483,13.9393,0.980712,0.195457,0,0.326511
32.0602,30.3479,0.37304,-0.149462,0.988767,0,0.458301
36.9855,33.7075,14.6487,-0.174473,0.984662,0,0.488313
0.837327,8.36526,3.30818,0.979054,-0.2036,0,0.0291911
30.2448,48.7384,7.0884,-0.147047,0.989129,0,0.757825
11.4823,23.7576,10.1499,0.888545,0.45879,0,0.345063
47.121,36.8259,14.4733,-0.172543,0.985002,0,0.500424
50.1788,41.0739,2.4852,-0.167068,0.985945,0,0.574115
18.1654,33.5189,2.48048,0.336173,0.9418,0,0.545597
14.4255,4.49396,12.1581,0.223509,0.974702,0,0.201435
41.3539,25.6165,14.3181,-0.172275,0.985049,0,0.301832
49.6937,47.1221,0.384353,-0.164208,0.986426,0,0.699014
18.1168,37.8825,5.00097,0.383183,0.923673,0,0.596624
5.2739,37.7897,13.2307,0.882204,0.470866,0,0.402789
16.4156,17.1567,14.1249,0.17315,0.984895,0,0.340541
3.86277,53.9928,1.6718,0.129346,0.9916,0,0.78974
9.93997,58.9454,7.03925,-0.0459407,0.998944,0,0.938674
1.94161,22.9481,12.9202,0.975118,-0.221684,0,0.139925
17.0925,45.6198,7.00494,0.149219,0.988804,0,0.693114
40.5701,54.0721,2.6936,-0.15131,0.988486,0,0.863986
18.3723,29.3309,12.3431,0.184931,0.982752,0,0.486543
16.2406,25.1981,1.65515,0.439987,0.898004,0,0.417072
38.78,57.9486,8.92353,-0.154594,0.987978,0,0.947818
12.6583,40.077,8.47434,0.483393,0.875404,0,0.569899
18.021,48.9108,8.01298,-0.0366921,0.999327,0,0.75389
3.08596,18.6157,14.0811,0.972603,-0.232471,0,0.132169
12.067,55.4618,3.21422,-0.0307518,0.999527,0,0.871711
13.4001,29.4089,1.31187,0.642742,0.766083,0,0.43567
20.7054,31.1557,1.36744,-0.0183454,0.999832,0,0.525139
6.9208,57.3497,11.2324,-0.0170965,0.999854,0,0.888743
40.8308,55.4356,9.01645,-0.157474,0.987523,0,0.892234
37.0966,30.6515,13.4952,-0.173349,0.98486,0,0.429277
2.07426,24.1056,10.2658,0.977248,-0.212102,0,0.152068
40.965,24.7302,14.1791,-0.171965,0.985103,0,0.285426
43.4045,54.609,2.35297,-0.153876,0.98809,0,0.870225
22.462,24.6517,10.0007,-0.00659073,0.999978,0,0.401507
19.0175,21.5664,3.30298,0.128566,0.991701,0,0.369372
15.6653,19.3457,7.35263,0.317408,0.948289,0,0.354616
46.2032,29.4618,6.85171,-0.169877,0.985465,0,0.355959
6.51132,17.0146,10.0972,0.983436,-0.181256,0,0.193939
41.8367,57.3028,0.736595,-0.150349,0.988633,0,0.930008
19.5728,29.1793,2.72859,0.0645729,0.997913,0,0.485468
0.406816,6.86532,10.3733,0.977048,-0.21302,0,0.0162075
18.0485,45.9006,13.4988,0.0933523,0.995633,0,0.701891
3.50653,45.949,9.73745,0.542219,0.840237,0,0.56683
2.84788,56.025,3.8978,0.0619756,0.998078,0,0.838025
11.6756,41.4766,8.54504,0.474668,0.880165,0,0.580644
15.4185,20.155,9.3517,0.366118,0.930569,0,0.361538
31.0684,57.3825,3.84005,-0.138945,0.9903,0,0.941964
9.80235,42.6897,9.22788,0.515797,0.856711,0,0.579058
32.2266,55.6338,0.860768,-0.138075,0.990422,0,0.904495
8.23208,34.0568,1.54825,0.882975,0.46942,0,0.399611
16.6465,10.5772,1.13284,0.0736141,0.997287,0,0.282867
1.95709,31.6248,11.5626,0.997843,-0.0656528,0,0.229451
0.317952,43.4316,12.1442,0.735491,0.677535,0,0.448838
5.98167,33.3972,12.739,0.963193,0.268812,0,0.341773
0.385502,41.582,11.0441,0.817685,0.575666,0,0.395041
0.984416,40.5357,10.6421,0.858848,0.512231,0,0.378988
40.2204,29.4508,4.96276,-0.166574,0.986029,0,0.387233
12.2829,31.5586,14.1872,0.694944,0.719064,0,0.444328
38.9116,29.1011,7.25094,-0.167716,0.985835,0,0.387587
0.218653,31.5097,14.6925,0.992188,-0.124755,0,0.19194
0.358908,15.9195,7.6379,0.974433,-0.224678,0,0.0580783
27.2107,56.4804,2.98908,-0.134085,0.99097,0,0.922202
33.694,54.3201,8.43714,-0.14981,0.988715,0,0.875921
22.305,26.1973,6.35257,-0.011445,0.999935,0,0.43045
12.7282,34.1428,0.423386,0.619521,0.78498,0,0.485193
8.50757,19.8069,9.51108,0.999974,0.00717837,0,0.254383
0.225116,45.0107,14.5473,0.622359,0.782732,0,0.49867
50.4855,35.9622,10.6033,-0.171858,0.985122,0,0.469105
1.20506,44.2941,0.897739,0.699822,0.714318,0,0.486293
25.0179,51.8732,1.46226,-0.126772,0.991932,0,0.822007
0.793732,33.6246,11.1776,0.999864,0.0164697,0,0.230964
13.943,7.74962,1.83646,0.323288,0.946301,0,0.245963
3.31089,33.6928,2.25138,0.993552,0.113378,0,0.283919
0.271845,23.5957,14.7512,0.976075,-0.217433,0,0.110476
46.6615,27.3621,1.62261,-0.166953,0.985965,0,0.309988
34.4491,59.1955,11.1588,-0.152839,0.988251,0,0.97902
0.989676,23.0559,0.96375,0.978115,-0.208063,0,0.11982
8.29936,47.78,0.726477,0.335163,0.94216,0,0.671591
0.323574,40.8772,14.6256,0.847984,0.530022,0,0.37326
2.28167,3.46087,8.89453,0.976609,-0.215024,0,0.047695
5.73586,36.0303,11.6207,0.922111,0.386927,0,0.378372
7.99358,25.7471,12.8784,0.997634,0.0687445,0,0.292952
11.7069,49.9441,7.5632,0.106604,0.994302,0,0.74955
44.3645,55.8045,8.76802,-0.160453,0.987043,0,0.893025
0.730921,46.1016,1.59838,0.588266,0.808668,0,0.531767
10.1768,12.5967,8.55261,0.95588,0.293759,0,0.243549
0.449933,0.262552,8.45947,0.976923,-0.21359,0,0.0172205
16.9242,17.5074,14.5252,0.147809,0.989016,0,0.344194
7.58765,16.8132,2.29673,0.996765,-0.0803717,0,0.216556
21.6914,31.2684,13.1836,-0.0891146,0.996021,0,0.530179
6.57454,59.2374,0.999204,-0.014749,0.999891,0,0.930256
33.0263,47.5744,10.5304,-0.1568,0.98763,0,0.738089
18.0464,36.4931,7.54645,0.393029,0.919526,0,0.579431
14.4074,17.1314,11.9235,0.417667,0.9086,0,0.333737
39.1265,22.8439,13.9885,-0.169988,0.985446,0,0.256093
24.506,21.0157,14.839,-0.0645233,0.997916,0,0.313227
11.182,34.9705,2.26788,0.696904,0.717164,0,0.471213
0.723062,12.1018,1.84027,0.979473,-0.201576,0,0.0446804
8.5888,1.60966,5.5168,0.965638,0.259891,0,0.138998
40.9631,23.7407,0.955094,-0.163089,0.986611,0,0.26591
38.8102,22.6398,0.198987,-0.159714,0.987163,0,0.254576
47.7805,50.4307,0.663932,-0.161283,0.986908,0,0.773203
0.280291,33.215,14.7555,0.997796,-0.0663487,0,0.210796
41.8073,23.5982,13.2104,-0.171823,0.985128,0,0.256638
36.7745,55.2445,2.0253,-0.145083,0.98942,0,0.893658
19.601,59.5545,4.85925,-0.120749,0.992683,0,0.982223
2.62569,7.94239,8.6476,0.975912,-0.218163,0,0.06503
38.1365,43.0499,0.455999,-0.160676,0.987007,0,0.652623
24.3858,31.648,3.43305,-0.108153,0.994134,0,0.531832
0.347968,36.0971,14.4686,0.987035,0.160506,0,0.261711
27.0334,28.9563,14.5996,-0.152111,0.988363,0,0.461856
41.4984,31.2694,14.5359,-0.173204,0.984886,0,0.416073
36.6268,27.2585,10.4843,-0.16825,0.985744,0,0.363588
25.424,29.3784,2.75547,-0.108234,0.994125,0,0.479021
38.8698,46.2137,11.4444,-0.164555,0.986368,0,0.709743
0.517342,34.8595,12.3333,0.996947,0.0780775,0,0.244537
7.45928,59.6105,10.6699,-0.0347445,0.999396,0,0.942818
1.30285,32.9523,11.0016,0.99998,-0.00626963,0,0.232286
0.818071,59.4123,10.6079,-0.00256336,0.999997,0,0.915256
42.2967,38.0476,9.03412,-0.170153,0.985418,0,0.544738
13.1647,53.3263,12.5447,-0.0336167,0.999435,0,0.830277
8.30569,39.7053,1.35877,0.712566,0.701605,0,0.497933
0.307005,38.5446,14.7258,0.941208,0.337827,0,0.313927
36.5522,45.5306,14.6543,-0.164968,0.986299,0,0.700503
0.364258,41.6929,1.62651,0.797884,0.602812,0,0.399914
0.304573,25.3174,12.675,0.978392,-0.206756,0,0.126251
1.28808,57.4721,1.65808,0.034964,0.999389,0,0.867745
6.74258,15.4917,9.22046,0.984621,-0.174706,0,0.190246
32.3048,59.0226,7.73701,-0.146259,0.989246,0,0.976704
20.0336,52.1424,11.7992,-0.127206,0.991876,0,0.822938
2.78718,53.0359,4.04321,0.160656,0.98701,0,0.758739
21.3068,28.992,3.3218,-0.0158234,0.999875,0,0.484045
2.4356,39.0624,14.1676,0.898786,0.438388,0,0.372144
27.1208,49.5742,4.81489,-0.137725,0.990471,0,0.77311
36.1167,23.1286,6.24658,-0.158716,0.987324,0,0.280436
17.7027,21.1634,9.08776,0.17656,0.98429,0,0.370238
28.0164,55.9806,7.13048,-0.142346,0.989817,0,0.911428
0.393428,36.1934,13.3464,0.984284,0.176594,0,0.265138
41.6948,47.0429,10.8663,-0.165431,0.986221,0,0.7201
23.6105,53.685,10.282,-0.144185,0.989551,0,0.859688
43.5953,44.6086,14.0743,-0.169357,0.985555,0,0.66672
42.947,48.6065,0.44412,-0.159151,0.987254,0,0.748143
50.5556,35.9873,7.16732,-0.169931,0.985456,0,0.469698
18.1466,15.3985,5.36809,0.081107,0.996705,0,0.332042
16.2732,18.5,3.68516,0.213795,0.976879,0,0.351278
2.1462,22.9458,3.10326,0.977555,-0.210679,0,0.144019
42.524,52.8989,13.8051,-0.163457,0.98655,0,0.835916
3.39031,46.8446,1.50489,0.518514,0.855069,0,0.588562
50.3734,43.68,0.37701,-0.166139,0.986102,0,0.626348
0.307005,39.3646,14.5411,0.914615,0.404326,0,0.334262
2.95837,34.9737,14.0503,0.98799,0.154516,0,0.299761
13.4737,3.22062,11.7409,0.335411,0.942072,0,0.181954
2.89561,58.4778,6.55183,0.0131381,0.999914,0,0.896846
41.9911,37.6821,1.38339,-0.165937,0.986136,0,0.539428
41.6681,29.2564,11.3406,-0.172174,0.985067,0,0.374799
2.01929,22.3183,0.297518,0.977555,-0.210681,0,0.136807
22.9147,59.2319,11.0187,-0.143623,0.989633,0,0.979554
14.3309,14.5166,0.340679,0.422891,0.906181,0,0.310554
0.410365,50.3121,4.61482,0.333504,0.942749,0,0.66247
2.24047,30.6439,13.7,0.993996,-0.109412,0,0.223664
44.3352,41.725,2.49656,-0.165663,0.986182,0,0.60817
0.572466,31.2037,14.6925,0.99156,-0.129649,0,0.196102
38.3131,58.4418,8.6016,-0.153635,0.988128,0,0.959126
3.90407,42.3185,2.91631,0.738284,0.67449,0,0.477025
15.9362,47.4996,13.6718,0.0663001,0.9978,0,0.723672
38.1489,49.5144,1.8168,-0.15287,0.988246,0,0.774924
0.628258,34.9456,14.7602,0.996663,0.0816284,0,0.245768
21.6388,30.8534,7.18043,-0.054863,0.998494,0,0.521993
30.1361,56.0071,6.55253,-0.142728,0.989762,0,0.912244
11.445,14.8181,14.1416,0.86262,0.505852,0,0.282062
5.34808,42.5803,14.2086,0.688246,0.725478,0,0.506997
20.8228,49.4801,6.01369,-0.110847,0.993838,0,0.765842
15.2164,44.3458,5.70718,0.2409,0.97055,0,0.6629
28.56,28.5852,7.60852,-0.141378,0.989956,0,0.444873
44.315,52.2993,4.15412,-0.158242,0.9874,0,0.820286
1.45546,28.0906,14.3026,0.985799,-0.167927,0,0.176971
33.7015,53.7534,2.67246,-0.142301,0.989823,0,0.864176
51.034,45.4484,7.70729,-0.168153,0.985761,0,0.660196
0.323574,41.4045,14.6256,0.828918,0.559371,0,0.387714
24.9628,26.8627,5.06483,-0.080087,0.996788,0,0.430959
0.280291,34.1775,14.2289,0.999955,0.00949245,0,0.224863
43.7739,44.8224,0.407232,-0.163248,0.986585,0,0.670853
18.4845,50.4924,9.65834,-0.0923629,0.995725,0,0.78689
3.51266,12.4336,14.5824,0.976703,-0.214596,0,0.106111
7.90181,31.7043,5.46411,0.937731,0.347363,0,0.359099
30.5863,50.1091,0.396641,-0.139176,0.990268,0,0.787486
1.65935,23.2398,12.3859,0.975178,-0.221423,0,0.135963
33.256,53.635,6.0179,-0.145686,0.989331,0,0.861688
2.13235,13.7507,3.74379,0.97648,-0.215609,0,0.0842288
16.408,27.6968,11.3205,0.360382,0.932805,0,0.450068
47.8998,35.0042,14.5988,-0.172797,0.984957,0,0.460751
8.41744,57.7241,13.5686,-0.0376682,0.99929,0,0.905722
33.2641,58.8033,11.605,-0.152776,0.988261,0,0.971264
27.5174,58.7182,3.91131,-0.135033,0.990841,0,0.971154
18.0288,23.7379,12.3754,0.222711,0.974884,0,0.404663
6.76961,5.16517,3.78582,0.996604,-0.0823378,0,0.131811
0.622821,55.9501,14.7133,0.0514755,0.998674,0,0.829016
16.3352,3.36386,6.16612,0.0927507,0.995689,0,0.185983
0.309785,41.1053,0.285531,0.822418,0.568884,0,0.384478
40.1679,54.2507,2.03705,-0.150425,0.988621,0,0.868334
3.34186,42.0497,5.07137,0.765853,0.643016,0,0.459485
51.994,40.1919,6.15551,-0.168896,0.985634,0,0.549563
11.7018,59.0207,0.713331,-0.0609159,0.998143,0,0.949668
31.8147,49.4032,1.64864,-0.142804,0.989751,0,0.773611
14.7596,9.77336,10.29,0.225598,0.97422,0,0.268291
18.1416,33.1641,8.78614,0.37977,0.925081,0,0.541661
39.1908,26.0959,8.04521,-0.167187,0.985925,0,0.324049
14.483,7.66791,5.45602,0.2274,0.973802,0,0.24604
14.699,50.7433,14.5453,-0.00725294,0.999974,0,0.78399
21.2641,53.7819,2.7916,-0.112816,0.993616,0,0.859704
0.339546,18.4018,1.4073,0.976899,-0.213703,0,0.0718024
17.0016,26.7671,4.96692,0.316916,0.948454,0,0.441145
7.04395,58.5589,7.79193,-0.0171681,0.999853,0,0.916777
0.536447,45.6367,14.7763,0.581009,0.813897,0,0.520576
0.225116,45.3518,14.7763,0.601886,0.798582,0,0.508513
46.4674,49.3208,12.1001,-0.167643,0.985848,0,0.753174
17.7599,47.479,8.47991,0.0211485,0.999776,0,0.725914
19.3615,57.6336,13.7836,-0.135931,0.990718,0,0.93945
20.0345,57.1932,1.5526,-0.114482,0.993425,0,0.931901
0.810893,34.649,1.33392,0.996674,0.0814924,0,0.245169
33.5995,57.2022,2.82257,-0.139991,0.990153,0,0.937126
39.4448,33.2438,12.1028,-0.172833,0.984951,0,0.46615
0.517342,35.0017,13.0878,0.996346,0.0854057,0,0.246414
49.3597,34.7322,14.671,-0.172912,0.984937,0,0.448683
18.1072,35.5296,11.5356,0.383251,0.923644,0,0.567709
16.76,16.2923,0.326636,0.123356,0.992362,0,0.336379
45.647,38.5623,1.00321,-0.166608,0.986023,0,0.541772
47.7231,44.4999,2.18096,-0.165478,0.986213,0,0.651958
38.8218,23.763,0.538408,-0.160184,0.987087,0,0.278291
31.607,49.7161,12.6375,-0.155704,0.987804,0,0.779803
1.86324,34.6476,14.4739,0.99546,0.095181,0,0.268776
4.28978,57.5994,13.737,0.00343145,0.999994,0,0.881687
50.1028,39.2823,4.9584,-0.168339,0.985729,0,0.538295
2.3193,35.2832,14.4739,0.990232,0.139432,0,0.290753
14.5501,54.8575,1.15488,-0.0545251,0.998512,0,0.867863
3.70979,31.3744,12.94,0.999983,-0.00590801,0,0.263748
34.6864,34.3238,12.7482,-0.175347,0.984507,0,0.515937
8.52425,13.8063,3.42542,0.999977,0.00672089,0,0.216713
43.4027,29.5749,10.307,-0.171881,0.985118,0,0.372246
27.9319,59.245,2.06961,-0.133391,0.991063,0,0.982956
25.9175,55.7349,4.48327,-0.13449,0.990915,0,0.905586
11.1097,41.6058,12.5458,0.502159,0.864775,0,0.575988
15.5014,20.5615,12.4216,0.353591,0.9354,0,0.365469
18.0845,2.47019,0.311829,0.045587,0.99896,0,0.168215
18.2649,50.7526,14.0237,-0.0850978,0.996373,0,0.793019
8.3584,2.69295,6.88933,0.98599,0.166807,0,0.143562
48.4037,48.3302,4.19814,-0.164214,0.986425,0,0.727734
48.8104,31.6443,3.45433,-0.168083,0.985773,0,0.388782
4.42847,15.1103,12.8045,0.974454,-0.224589,0,0.138471
13.5884,34.4092,5.63859,0.564516,0.825422,0,0.501952
43.2363,32.2379,3.34271,-0.167038,0.98595,0,0.427181
5.65071,29.4247,0.847296,0.999323,0.0367785,0,0.281042
19.1682,26.0247,0.495433,0.1392,0.990264,0,0.436264
1.00645,31.1531,12.7584,0.99408,-0.108653,0,0.203194
11.8036,13.2353,3.10323,0.782359,0.622828,0,0.27485
1.12424,42.5588,2.03154,0.760966,0.648792,0,0.436455
33.1743,25.9721,3.38065,-0.148743,0.988876,0,0.360187
2.67946,12.3557,6.45213,0.975525,-0.219887,0,0.0867121
4.416,57.5755,11.9709,0.00809293,0.999967,0,0.881883
14.9026,40.7675,14.5866,0.359475,0.933155,0,0.605382
17.0682,52.3789,13.5574,-0.0872454,0.996187,0,0.824478
17.1736,12.0817,2.70767,0.0715363,0.997438,0,0.298162
30.37,55.2943,8.12466,-0.145667,0.989334,0,0.896642
40.8605,35.5103,12.7245,-0.172586,0.984994,0,0.503096
23.4274,31.4963,2.02383,-0.0919877,0.99576,0,0.531168
51.9127,38.097,2.72425,-0.167601,0.985855,0,0.507473
18.1184,18.1938,1.11456,0.0751532,0.997172,0,0.352321
31.5443,28.3627,14.5992,-0.166633,0.986019,0,0.419096
1.52282,57.5744,14.6573,0.016665,0.999861,0,0.872374
0.893803,47.9788,3.11374,0.467067,0.884222,0,0.593262
5.31324,33.5915,7.53613,0.971302,0.237848,0,0.329512
3.75583,38.0304,0.394491,0.89932,0.437291,0,0.375562
35.1847,27.0527,11.5718,-0.167743,0.985831,0,0.368322
33.5701,32.7472,12.559,-0.175987,0.984393,0,0.494163
5.90687,30.5918,14.5801,0.995778,0.0917939,0,0.301208
3.37766,59.6065,13.6734,-0.00957822,0.999954,0,0.925518
17.5321,52.4018,10.039,-0.0937568,0.995595,0,0.825116
7.74708,30.1639,10.9682,0.971972,0.235095,0,0.335953
4.1095,52.1366,13.4625,0.181733,0.983348,0,0.742869
36.3383,36.7168,4.21957,-0.165891,0.986144,0,0.547908
1.25513,37.6131,13.7156,0.956384,0.292113,0,0.312414
43.4652,43.3648,7.3141,-0.166811,0.985989,0,0.643317
5.98608,53.8071,1.66489,0.116409,0.993201,0,0.798748
48.747,33.7429,6.38803,-0.169584,0.985516,0,0.43148
3.83958,56.4729,4.8466,0.0404581,0.999181,0,0.853366
40.163,33.3159,0.961438,-0.165216,0.986257,0,0.464473
14.2882,56.0382,14.6183,-0.0824215,0.996598,0,0.893646
42.5519,24.2963,13.609,-0.172614,0.984989,0,0.267346
11.4008,22.0081,2.24851,0.901749,0.43226,0,0.328154
18.9319,49.1329,5.87546,-0.0703153,0.997525,0,0.759105
10.0013,18.6467,2.62721,0.968472,0.249121,0,0.27877
11.1783,35.1622,0.408205,0.68643,0.727196,0,0.473482
17.9388,33.1929,14.4408,0.311771,0.950157,0,0.536599
2.13846,39.9744,7.82071,0.868943,0.494913,0,0.387143
5.76807,51.476,13.4129,0.18638,0.982478,0,0.73802
45.6418,29.5379,3.35709,-0.167568,0.985861,0,0.360127
17.8722,23.2422,8.57661,0.20357,0.97906,0,0.396314
42.8759,38.735,11.4232,-0.17096,0.985278,0,0.555313
41.843,29.264,0.800402,-0.165514,0.986207,0,0.375064
38.5997,55.0721,12.1231,-0.158516,0.987356,0,0.887634
31.0184,21.8918,0.605937,-0.13388,0.990998,0,0.286547
35.8339,36.1681,8.61265,-0.169785,0.985481,0,0.541917
34.0859,21.4624,0.188198,-0.148293,0.988943,0,0.259
10.5534,59.5951,11.9037,-0.0661709,0.997808,0,0.956077
10.1576,45.3107,1.35908,0.397968,0.917399,0,0.636419
31.9224,23.5486,1.23907,-0.140242,0.990117,0,0.316923
16.7647,46.2332,0.835453,0.118212,0.992988,0,0.703679
2.04581,45.8104,14.6435,0.569074,0.822287,0,0.54476
21.4958,21.1389,1.72601,0.0275974,0.999619,0,0.34044
36.7239,44.4694,13.9491,-0.166261,0.986082,0,0.680797
11.709,7.96649,0.718816,0.736542,0.676392,0,0.231672
28.3362,21.5284,0.280841,-0.0992015,0.995067,0,0.297826
12.3528,36.0682,0.408205,0.633148,0.774031,0,0.505736
2.35138,10.5935,5.37551,0.976415,-0.215902,0,0.0715621
0.729488,53.2486,2.42672,0.167408,0.985888,0,0.753293
0.380443,14.64,6.31358,0.975349,-0.220667,0,0.0505935
36.8506,56.4985,13.0055,-0.15682,0.987627,0,0.919006
3.48883,3.78012,12.8201,0.980537,-0.196335,0,0.0700248
3.4658,28.6207,6.29549,0.992899,-0.11896,0,0.223684
45.3539,26.1935,14.2102,-0.173446,0.984843,0,0.29263
24.309,24.1963,12.4097,-0.059038,0.998256,0,0.381842
18.2922,4.2601,0.206082,0.0219648,0.999759,0,0.198201
41.6454,50.6497,4.46719,-0.15701,0.987597,0,0.792274
18.1544,12.982,9.2199,0.0491438,0.998792,0,0.307686
22.8249,25.9102,1.33953,-0.0275257,0.999621,0,0.42189
8.42045,40.5817,6.87434,0.678978,0.734159,0,0.516355
17.0096,49.0594,11.1276,-0.0186602,0.999826,0,0.75609
6.01025,40.8549,14.0857,0.756562,0.653922,0,0.481184
41.0639,57.4454,7.62929,-0.155542,0.987829,0,0.934477
16.9703,59.5791,4.8234,-0.110272,0.993901,0,0.978159
25.41,59.0481,14.2008,-0.150878,0.988552,0,0.977441
22.4334,49.1705,11.3342,-0.142945,0.989731,0,0.760932
45.7212,53.5803,2.76004,-0.157667,0.987492,0,0.843538
7.1981,14.1012,2.58429,0.993298,-0.115578,0,0.19098
3.73989,23.852,12.4372,0.979295,-0.202438,0,0.184685
8.09579,58.4216,14.6446,-0.0431771,0.999067,0,0.920306
8.94876,56.4633,8.34371,-0.0208063,0.999784,0,0.87788
5.20867,58.3499,11.2075,-0.011521,0.999934,0,0.90335
12.8477,59.1067,0.677478,-0.0718122,0.997418,0,0.955846
43.9093,25.397,2.43001,-0.165935,0.986137,0,0.284049
7.30971,35.7088,14.533,0.872907,0.487887,0,0.405799
15.0014,23.2574,13.6363,0.505929,0.862575,0,0.390106
1.25053,20.0255,11.8339,0.972931,-0.231096,0,0.100918
33.2316,50.9236,13.8041,-0.157246,0.987559,0,0.80519
16.3719,31.1434,13.6949,0.366767,0.930313,0,0.496336
12.9562,27.6781,2.20425,0.730786,0.682606,0,0.408322
21.0429,49.1803,10.9198,-0.133059,0.991108,0,0.759457
4.2039,16.2099,6.81924,0.97481,-0.223035,0,0.141297
39.7688,55.7007,1.71185,-0.148944,0.988846,0,0.899532
40.5643,55.4724,14.1713,-0.160785,0.98699,0,0.89307
0.65966,55.0975,14.4234,0.0751267,0.997174,0,0.806453
6.4525,59.0271,9.65033,-0.0195008,0.99981,0,0.925137
13.8912,57.0819,5.60735,-0.0768491,0.997043,0,0.914142
0.744731,47.8101,11.1013,0.441138,0.897439,0,0.587765
0.976888,34.2188,6.79194,0.995992,0.0894404,0,0.240756
39.4721,52.2803,9.04731,-0.158323,0.987387,0,0.828585
49.9412,47.7545,5.78545,-0.165916,0.98614,0,0.711183
1.53346,44.1397,0.897739,0.697358,0.716723,0,0.486963
50.161,31.5741,12.3471,-0.172842,0.98495,0,0.38061
17.7065,41.7702,14.3873,0.263419,0.964682,0,0.642476
16.1111,21.0775,11.2748,0.311848,0.950132,0,0.371049
16.6808,27.1738,8.78774,0.35225,0.935906,0,0.445389
18.2506,39.027,0.460153,0.361929,0.932206,0,0.613514
12.3854,44.4202,13.1431,0.315494,0.948928,0,0.642044
2.31206,31.6653,0.97606,0.999189,-0.0402766,0,0.230867
1.4704,36.6154,10.8711,0.968258,0.249951,0,0.297346
10.4511,15.3815,14.5807,0.954628,0.297802,0,0.266676
3.37141,13.834,4.27422,0.975586,-0.219618,0,0.110458
3.21127,38.1056,2.2497,0.906034,0.423205,0,0.366721
8.63407,23.0256,14.5088,0.990878,0.134761,0,0.28139
1.30486,43.0177,13.31,0.740613,0.671932,0,0.452783
32.3924,31.8942,7.68013,-0.165389,0.986228,0,0.485797
27.8902,21.8534,14.6734,-0.118854,0.992912,0,0.308538
0.924693,54.0918,5.46732,0.124857,0.992175,0,0.779403
7.67989,32.1589,14.1245,0.944697,0.327944,0,0.360246
14.4376,33.0295,0.842458,0.532012,0.846737,0,0.496274
3.25839,14.4715,2.72889,0.976035,-0.217616,0,0.112474
6.67773,59.57,4.75657,-0.014371,0.999897,0,0.937504
11.0663,56.5235,8.88283,-0.0457889,0.998951,0,0.890284
0.363192,58.4959,6.2592,0.0125296,0.999922,0,0.893134
18.247,13.4014,0.376175,0.0354684,0.999371,0,0.3156
18.1184,18.969,1.92111,0.109402,0.993998,0,0.355896
8.23805,3.8982,0.371806,0.985407,0.170213,0,0.147352
1.26886,49.1674,12.4958,0.359526,0.933135,0,0.634735
13.949,59.5401,0.308062,-0.0828739,0.99656,0,0.968818
46.9045,31.0934,3.18068,-0.167723,0.985834,0,0.38606
7.29295,44.6884,2.91441,0.532925,0.846162,0,0.58725
5.89002,56.589,10.6997,0.00641346,0.999979,0,0.86572
2.36495,45.7867,14.0035,0.565463,0.824773,0,0.547992
12.6735,59.2816,9.4227,-0.0813208,0.996688,0,0.958278
7.23226,55.4443,10.979,0.016125,0.99987,0,0.845408
19.1381,49.536,11.4803,-0.108704,0.994074,0,0.76682
37.5942,55.3518,12.42,-0.157448,0.987527,0,0.894534
35.5652,22.2719,1.64226,-0.152558,0.988295,0,0.267081
30.43,32.2425,0.311558,-0.144963,0.989437,0,0.508818
18.0369,4.33772,6.68229,0.0405974,0.999176,0,0.201956
37.0058,33.4976,8.08605,-0.169357,0.985555,0,0.485394
37.6662,25.27,14.267,-0.169615,0.98551,0,0.31572
32.8336,33.1446,1.84988,-0.155585,0.987822,0,0.508038
19.8552,23.2147,13.5703,0.104871,0.994486,0,0.39279
1.67983,2.03356,14.5155,0.979158,-0.203101,0,0.0351493
8.78031,59.5956,7.29617,-0.0371729,0.999309,0,0.947927
8.19529,35.575,5.37576,0.850028,0.526738,0,0.42284
34.5869,21.6395,12.3764,-0.160488,0.987038,0,0.258499
28.1128,21.0408,0.280841,-0.0955453,0.995425,0,0.28912
30.144,23.3705,12.3113,-0.139403,0.990236,0,0.324359
9.00223,19.4911,0.383867,0.995107,0.0988029,0,0.263466
16.9108,40.941,5.2588,0.328772,0.944409,0,0.623811
37.7277,33.9558,2.39349,-0.16447,0.986382,0,0.489598
30.9912,21.2124,0.20965,-0.132989,0.991117,0,0.272107
33.5496,30.1202,5.1891,-0.158996,0.987279,0,0.442569
43.1868,24.9523,5.58198,-0.167297,0.985906,0,0.278421
30.0739,21.3305,0.277211,-0.125602,0.992081,0,0.280004
3.42828,6.79743,3.6447,0.977779,-0.20964,0,0.0773149
17.9885,10.1828,7.38038,0.0381121,0.999273,0,0.277609
17.7102,32.3594,2.33778,0.280624,0.959818,0,0.52671
26.7284,22.4186,11.0889,-0.0996641,0.995021,0,0.327167
41.5097,23.3712,14.7243,-0.1719,0.985114,0,0.253698
11.4831,56.9205,4.9839,-0.0460252,0.99894,0,0.901117
0.383754,20.5898,1.39464,0.976547,-0.215304,0,0.0877773
28.5029,21.5686,5.74278,-0.112093,0.993698,0,0.296957
39.0874,36.8042,6.53875,-0.16804,0.98578,0,0.535509
18.3427,10.7698,0.210732,0.0138771,0.999904,0,0.284784
32.1789,54.7947,2.72664,-0.139742,0.990188,0,0.886278
2.46113,44.8279,13.5964,0.622859,0.782334,0,0.521932
15.7454,31.1323,13.525,0.422283,0.906464,0,0.489338
1.04035,27.4749,13.7215,0.983052,-0.183329,0,0.161032
3.7542,51.4525,0.413832,0.244344,0.969689,0,0.720707
2.80939,8.62994,11.0798,0.976883,-0.213775,0,0.0720586
40.8852,54.697,13.5267,-0.161345,0.986898,0,0.876344
39.8553,56.2457,11.8873,-0.158675,0.987331,0,0.910496
19.6154,49.6099,11.2169,-0.116521,0.993188,0,0.7683
7.15773,22.2069,14.6018,0.997539,-0.0701169,0,0.243156
27.1123,50.1313,12.3682,-0.152437,0.988313,0,0.784468
26.1956,22.9582,1.14611,-0.0785783,0.996908,0,0.342736
46.1686,51.4468,1.73783,-0.159467,0.987203,0,0.798284
28.662,23.7422,14.5939,-0.128093,0.991762,0,0.343356
6.3453,34.4274,2.23901,0.943981,0.329999,0,0.364208
34.8439,58.6433,6.14485,-0.145992,0.989286,0,0.966928
0.293189,26.1345,0.563837,0.981792,-0.189961,0,0.131019
2.82077,1.34923,9.26807,0.979379,-0.202031,0,0.0607766
38.3932,39.6131,13.1167,-0.170978,0.985275,0,0.589858
16.711,35.1058,3.01921,0.412448,0.910981,0,0.550289
22.7299,23.6767,1.59998,-0.00651872,0.999979,0,0.380236
38.1522,27.2746,2.37647,-0.161637,0.98685,0,0.354959
18.1479,14.2514,1.32352,0.0529826,0.998595,0,0.321707
24.6471,23.8863,12.9865,-0.0656441,0.997843,0,0.373461
0.583703,56.8072,14.3771,0.027373,0.999625,0,0.851262
30.327,20.9758,0.486861,-0.129052,0.991638,0,0.27078
12.1865,27.3125,8.56426,0.788025,0.615643,0,0.392298
35.5208,22.156,9.34368,-0.160512,0.987034,0,0.263283
25.5784,25.2471,5.7236,-0.0826439,0.996579,0,0.394671
3.53263,19.3749,12.3526,0.972983,-0.230876,0,0.146839
27.1522,30.1534,14.5051,-0.162014,0.986789,0,0.485965
8.63964,48.5032,5.62148,0.282568,0.959247,0,0.691842
0.911408,57.969,1.77132,0.0296563,0.99956,0,0.879423
45.5717,25.8704,14.6247,-0.173438,0.984845,0,0.284724
33.681,55.0646,4.96567,-0.143975,0.989581,0,0.891605
11.1247,8.42959,0.359976,0.834755,0.550622,0,0.227452
49.0387,41.9096,14.2382,-0.171965,0.985103,0,0.59467
9.3237,22.7954,8.85977,0.983312,0.181927,0,0.294452
40.3879,31.2933,13.4057,-0.173141,0.984897,0,0.422762
8.94128,37.3696,5.04706,0.767301,0.641287,0,0.467167
37.9064,22.1724,0.485366,-0.158096,0.987424,0,0.250088
36.3395,56.7587,14.2489,-0.156935,0.987609,0,0.924879
3.09303,1.8662,8.2115,0.979813,-0.199918,0,0.0648875
8.10975,3.68181,7.86555,0.995545,0.0942834,0,0.145743
13.9212,29.533,2.33975,0.59355,0.804797,0,0.445208
1.6775,27.0108,0.398337,0.984399,-0.175948,0,0.168965
32.319,21.3688,4.80816,-0.141968,0.989871,0,0.266875
42.5115,30.1333,12.2972,-0.172721,0.984971,0,0.388088
15.7833,26.1339,14.5936,0.439978,0.898008,0,0.425452
32.6733,49.4752,8.55313,-0.15226,0.98834,0,0.77561
19.5448,25.6865,14.5996,0.140415,0.990093,0,0.431867
9.36444,6.78045,11.5213,0.945297,0.32621,0,0.185887
8.29303,12.6172,8.08839,0.999498,-0.0316932,0,0.205177
14.9049,51.31,10.4036,-0.0191434,0.999817,0,0.795153
48.1622,45.6884,3.75268,-0.165353,0.986235,0,0.674771
12.7151,58.2585,14.6502,-0.0856477,0.996325,0,0.936082
39.6567,36.9032,0.879713,-0.165255,0.986251,0,0.535562
28.5315,56.565,9.63539,-0.147721,0.989029,0,0.924061
2.91179,44.9134,7.39474,0.616484,0.787368,0,0.53106
13.5036,14.1321,0.718455,0.568674,0.822563,0,0.30063
35.0386,47.7444,0.473971,-0.150343,0.988634,0,0.742436
14.1965,28.0098,1.33758,0.610497,0.792019,0,0.429574
1.25874,35.6165,13.7269,0.989998,0.141078,0,0.272697
37.2594,58.7714,0.590976,-0.142379,0.989812,0,0.967658
31.5816,59.5176,1.64088,-0.136311,0.990666,0,0.988268
48.1906,32.115,10.8709,-0.172281,0.985048,0,0.400557
46.3818,51.6149,8.40379,-0.163538,0.986537,0,0.800774
12.8296,0.618062,0.182768,0.459655,0.888097,0,0.14348
0.35648,45.7274,1.46343,0.610014,0.79239,0,0.515915
8.63736,46.2634,10.7266,0.384157,0.923268,0,0.640504
8.37192,0.322313,12.8507,0.981732,0.190268,0,0.127174
7.96143,1.29256,12.5398,0.991266,0.131879,0,0.129109
6.46088,32.9378,12.8289,0.959807,0.280661,0,0.345378
18.3235,51.7729,2.19636,-0.0717027,0.997426,0,0.813905
2.33013,58.7634,4.55853,0.0127719,0.999918,0,0.902048
30.0622,49.7388,12.6113,-0.154684,0.987964,0,0.779299
4.71891,9.58569,5.065,0.976937,-0.213528,0,0.115571
2.2571,21.8655,12.1434,0.974283,-0.22533,0,0.136975
36.3967,21.8309,0.567217,-0.154751,0.987954,0,0.252714
4.18564,21.8664,3.22191,0.97975,-0.200224,0,0.178477
13.6938,15.0531,1.65449,0.532731,0.846285,0,0.31037
43.0016,51.9168,2.71456,-0.156132,0.987736,0,0.815319
36.7962,31.963,3.58106,-0.16316,0.9866,0,0.457203
9.03262,58.6073,12.9878,-0.0530413,0.998592,0,0.928116
39.553,22.5714,0.503873,-0.160769,0.986992,0,0.248653
15.6962,4.76781,6.53955,0.099134,0.995074,0,0.208349
13.88,53.4079,14.1383,-0.0438271,0.999039,0,0.835409
36.1361,34.4377,13.8025,-0.174931,0.984581,0,0.507293
38.3183,22.2678,0.198987,-0.158905,0.987294,0,0.249623
39.2903,24.5954,13.8365,-0.170567,0.985346,0,0.292101
37.3955,58.6763,3.30922,-0.144846,0.989454,0,0.965553
15.6862,32.5735,6.24479,0.436445,0.899731,0,0.508275
30.4161,21.341,0.486861,-0.128492,0.991711,0,0.278148
8.26405,46.0162,8.31671,0.403167,0.915127,0,0.630859
36.4159,38.0014,6.57477,-0.167455,0.98588,0,0.570178
9.42767,23.2892,1.03859,0.979454,0.201668,0,0.299245
51.9278,40.6276,10.4323,-0.171263,0.985225,0,0.557927
16.289,50.6327,12.8351,-0.0452117,0.998977,0,0.786476
36.6505,22.6015,1.7368,-0.156321,0.987706,0,0.266828
1.16541,10.7394,14.6556,0.978873,-0.204468,0,0.0462527
16.1139,30.429,2.47348,0.390171,0.920742,0,0.483921
14.706,42.6568,3.11269,0.310853,0.950458,0,0.631796
18.1903,31.4064,8.16073,0.221555,0.975148,0,0.51946
40.3091,28.1096,3.72373,-0.165277,0.986247,0,0.359714
14.4134,15.1444,6.32061,0.387736,0.92177,0,0.318757
41.5258,31.4746,3.93803,-0.166794,0.985992,0,0.420995
45.2893,51.0208,13.6673,-0.166365,0.986064,0,0.791183
12.9802,12.3866,3.67436,0.605541,0.795814,0,0.283403
45.4713,30.9929,12.8816,-0.173095,0.984905,0,0.390547
27.1228,20.9091,0.309386,-0.0859264,0.996301,0,0.293199
16.4868,32.7079,13.0462,0.372677,0.927961,0,0.517944
20.947,26.5194,8.1905,0.030228,0.999543,0,0.441215
44.7614,27.3621,14.5855,-0.173336,0.984863,0,0.319631
29.0586,21.2793,12.9731,-0.131494,0.991317,0,0.286872
16.7553,37.9244,2.61204,0.397476,0.917612,0,0.586281
4.26719,3.66167,10.9679,0.981881,-0.1895,0,0.0841079
38.5894,57.5944,2.07964,-0.146399,0.989226,0,0.941423
14.7602,42.9682,12.2034,0.287986,0.957634,0,0.637889
29.5288,23.1588,12.1221,-0.134159,0.99096,0,0.324081
18.1016,6.1161,0.233795,0.0185917,0.999827,0,0.227204
42.8602,24.0289,14.7801,-0.172758,0.984964,0,0.260064
2.21272,56.9451,14.1038,0.0251557,0.999684,0,0.858894
13.0531,56.241,14.2275,-0.0690823,0.997611,0,0.893272
45.1755,38.6101,0.391445,-0.166514,0.986039,0,0.544611
18.2817,1.97342,0.510789,0.0523063,0.998631,0,0.159255
22.2381,24.0946,9.6298,0.000357736,1,0,0.392168
15.6995,40.9448,2.35179,0.348353,0.937363,0,0.615077
34.3848,25.3553,0.415521,-0.151102,0.988518,0,0.33961
29.0267,23.0584,6.06059,-0.120024,0.992771,0,0.325213
23.1021,21.2596,2.44407,-0.0212341,0.999775,0,0.329356
18.1173,0.292357,2.49442,0.0654005,0.997859,0,0.12635
31.6387,21.1338,0.265822,-0.138333,0.990386,0,0.266502
2.22225,10.7036,14.6556,0.978178,-0.207771,0,0.0696598
35.9166,46.3412,10.7859,-0.161944,0.9868,0,0.716684
1.28869,50.8088,2.75116,0.317469,0.948269,0,0.682839
42.7988,51.5151,2.45493,-0.156134,0.987736,0,0.807524
0.578619,8.01815,0.822042,0.981444,-0.191747,0,0.0222404
35.2939,33.7943,14.1159,-0.175976,0.984395,0,0.50152
9.0979,32.878,12.3041,0.882956,0.469456,0,0.400721
50.3529,46.1385,1.12142,-0.164986,0.986296,0,0.676672
3.4595,54.8865,3.68595,0.0958661,0.995394,0,0.811232
11.2873,19.8501,12.3584,0.909849,0.41494,0,0.311142
31.2955,21.1145,0.475472,-0.135871,0.990726,0,0.268205
45.0529,45.9297,0.507547,-0.163226,0.986589,0,0.68926
10.5658,11.563,13.4617,0.878234,0.478231,0,0.243511
