-17.4041 25.7932 -42.7144 
-19.0856 21.4944 -44.0061 
-20.767 17.1955 -45.2978 
-22.4484 12.8966 -46.5895 
-24.1298 8.59775 -47.8812 
-25.8113 4.29887 -49.1729 
-27.4927 0 -50.4646 
1.44731 77.2652 -25.1709 
-0.197552 72.9727 -26.5639 
-1.84242 68.6802 -27.9569 
-3.48728 64.3877 -29.3498 
-5.13214 60.0951 -30.7428 
-6.77701 55.8026 -32.1358 
-8.42187 51.5101 -33.5287 
-10.0667 47.2176 -34.9217 
-11.7116 42.9251 -36.3147 
-13.3565 38.6326 -37.7077 
-15.0013 34.3401 -39.1006 
-16.6462 30.0476 -40.4936 
-18.2911 25.7551 -41.8866 
-19.9359 21.4626 -43.2796 
-21.5808 17.17 -44.6725 
-23.2256 12.8775 -46.0655 
-24.8705 8.58502 -47.4585 
-26.5154 4.29251 -48.8515 
-28.1602 0 -50.2444 
0.850822 77.547 -25.2891 
-0.895333 73.2389 -26.7014 
-2.64149 68.9307 -28.1136 
-4.38764 64.6225 -29.5259 
-6.1338 60.3144 -30.9381 
-7.87995 56.0062 -32.3504 
-9.62611 51.698 -33.7627 
-11.3723 47.3899 -35.1749 
-13.1184 43.0817 -36.5872 
-14.8646 38.7735 -37.9994 
-16.6107 34.4653 -39.4117 
-18.3569 30.1572 -40.824 
-20.103 25.849 -42.2362 
-21.8492 21.5408 -43.6485 
-23.5953 17.2327 -45.0607 
-25.3415 12.9245 -46.473 
-27.0877 8.61634 -47.8853 
-28.8338 4.30817 -49.2975 
-30.58 0 -50.7098 
1.35724 77.4649 -25.6746 
-0.355516 73.1613 -27.024 
-2.06828 68.8577 -28.3735 
-3.78104 64.5541 -29.7229 
-5.4938 60.2505 -31.0723 
-7.20656 55.9469 -32.4217 
-8.91932 51.6433 -33.7711 
-10.6321 47.3397 -35.1206 
-12.3448 43.036 -36.47 
-14.0576 38.7324 -37.8194 
-15.7704 34.4288 -39.1688 
-17.4831 30.1252 -40.5183 
-19.1959 25.8216 -41.8677 
-20.9086 21.518 -43.2171 
-22.6214 17.2144 -44.5665 
-24.3342 12.9108 -45.916 
-26.0469 8.60721 -47.2654 
-27.7597 4.3036 -48.6148 
-29.4724 0 -49.9642 
-3.87838 77.677 -20.3655 
-5.64053 73.3616 -22.1554 
-7.40269 69.0462 -23.9452 
-9.16484 64.7308 -25.7351 
-10.927 60.4154 -27.5249 
-12.6892 56.1001 -29.3148 
-14.4513 51.7847 -31.1047 
-16.2135 47.4693 -32.8945 
-17.9756 43.1539 -34.6844 
-19.7378 38.8385 -36.4742 
-21.4999 34.5231 -38.2641 
-23.2621 30.2077 -40.0539 
-25.0242 25.8923 -41.8438 
-26.7864 21.5769 -43.6336 
-28.5485 17.2616 -45.4235 
-30.3107 12.9462 -47.2133 
-32.0729 8.63078 -49.0032 
-33.835 4.31539 -50.793 
-35.5972 0 -52.5829 
-3.98291 78.0972 -21.2757 
-5.69276 73.9868 -22.9543 
-7.40261 69.8764 -24.6329 
-9.11245 65.766 -26.3115 
-10.8223 61.6557 -27.9901 
-12.5321 57.5453 -29.6687 
-14.242 53.4349 -31.3474 
-15.9518 49.3245 -33.026 
-17.6617 45.2142 -34.7046 
-19.3715 41.1038 -36.3832 
-21.0814 36.9934 -38.0618 
-22.7912 32.883 -39.7404 
-24.5011 28.7726 -41.419 
-26.2109 24.6623 -43.0976 
-27.9208 20.5519 -44.7763 
-29.6306 16.4415 -46.4549 
-31.3404 12.3311 -48.1335 
-33.0503 8.22075 -49.8121 
-34.7601 4.11038 -51.4907 
-36.47 0 -53.1693 
-2.65538 77.3476 -20.7449 
-4.42241 73.0505 -22.4239 
-6.18944 68.7534 -24.1029 
-7.95647 64.4563 -25.7819 
-9.7235 60.1592 -27.4608 
-11.4905 55.8621 -29.1398 
-13.2576 51.565 -30.8188 
-15.0246 47.268 -32.4978 
-16.7916 42.9709 -34.1768 
-18.5587 38.6738 -35.8558 
-20.3257 34.3767 -37.5348 
-22.0927 30.0796 -39.2138 
-23.8598 25.7825 -40.8928 
-25.6268 21.4854 -42.5718 
-27.3938 17.1883 -44.2508 
-29.1609 12.8913 -45.9298 
-30.9279 8.59417 -47.6088 
-32.6949 4.29709 -49.2878 
-34.462 0 -50.9668 
-5.34033 78.2911 -20.3715 
-7.0918 74.1705 -22.0976 
-8.84326 70.0499 -23.8238 
-10.5947 65.9293 -25.5499 
-12.3462 61.8087 -27.2761 
-14.0977 57.6882 -29.0023 
-15.8491 53.5676 -30.7284 
-17.6006 49.447 -32.4546 
-19.3521 45.3264 -34.1807 
-21.1035 41.2058 -35.9069 
-22.855 37.0852 -37.6331 
-24.6064 32.9647 -39.3592 
-26.3579 28.8441 -41.0854 
-28.1094 24.7235 -42.8115 
-29.8608 20.6029 -44.5377 
-31.6123 16.4823 -46.2639 
-33.3638 12.3617 -47.99 
-35.1152 8.24117 -49.7162 
-36.8667 4.12058 -51.4423 
-38.6182 0 -53.1685 
-1.72874 77.5875 -22.3803 
-3.46647 73.2771 -23.9592 
-5.2042 68.9667 -25.5381 
-6.94193 64.6563 -27.117 
-8.67966 60.3459 -28.696 
-10.4174 56.0354 -30.2749 
-12.1551 51.725 -31.8538 
-13.8929 47.4146 -33.4327 
-15.6306 43.1042 -35.0116 
-17.3683 38.7938 -36.5905 
-19.106 34.4834 -38.1695 
-20.8438 30.1729 -39.7484 
-22.5815 25.8625 -41.3273 
-24.3192 21.5521 -42.9062 
-26.057 17.2417 -44.4851 
-27.7947 12.9313 -46.064 
-29.5324 8.62084 -47.643 
-31.2702 4.31042 -49.2219 
-33.0079 0 -50.8008 
-1.90336 77.1432 -21.0359 
-3.62696 72.8575 -22.6684 
-5.35056 68.5717 -24.3009 
-7.07416 64.286 -25.9334 
-8.79777 60.0003 -27.5659 
-10.5214 55.7145 -29.1984 
-12.245 51.4288 -30.8309 
-13.9686 47.1431 -32.4634 
-15.6922 42.8573 -34.0959 
-17.4158 38.5716 -35.7284 
-19.1394 34.2859 -37.3609 
-20.863 30.0001 -38.9934 
-22.5866 25.7144 -40.6259 
-24.3102 21.4287 -42.2584 
-26.0338 17.1429 -43.8909 
-27.7574 12.8572 -45.5234 
-29.481 8.57147 -47.1559 
-31.2046 4.28573 -48.7884 
-32.9282 0 -50.4209 
-0.665964 76.967 -21.8332 
-2.37087 72.6911 -23.3713 
-4.07578 68.4151 -24.9094 
-5.78068 64.1392 -26.4475 
-7.48559 59.8632 -27.9856 
-9.1905 55.5873 -29.5238 
-10.8954 51.3113 -31.0619 
-12.6003 47.0354 -32.6 
-14.3052 42.7594 -34.1381 
-16.0101 38.4835 -35.6762 
-17.715 34.2076 -37.2143 
-19.4199 29.9316 -38.7524 
-21.1248 25.6557 -40.2905 
-22.8297 21.3797 -41.8286 
-24.5347 17.1038 -43.3667 
-26.2396 12.8278 -44.9048 
-27.9445 8.55189 -46.4429 
-29.6494 4.27594 -47.981 
-31.3543 0 -49.5192 
-0.283038 77.3728 -23.4388 
-2.01413 73.0744 -24.9511 
-3.74523 68.7759 -26.4634 
-5.47632 64.4774 -27.9757 
-7.20741 60.1789 -29.488 
-8.93851 55.8804 -31.0003 
-10.6696 51.5819 -32.5126 
-12.4007 47.2834 -34.0249 
-14.1318 42.9849 -35.5372 
-15.8629 38.6864 -37.0495 
-17.594 34.3879 -38.5618 
-19.3251 30.0894 -40.0741 
-21.0562 25.7909 -41.5864 
-22.7873 21.4925 -43.0987 
-24.5184 17.194 -44.611 
-26.2494 12.8955 -46.1233 
-27.9805 8.59698 -47.6356 
-29.7116 4.29849 -49.1479 
-31.4427 0 -50.6602 
-0.862811 77.6406 -23.5196 
-2.61862 73.3273 -25.0289 
-4.37442 69.0139 -26.5381 
-6.13023 64.7005 -28.0474 
-7.88604 60.3872 -29.5566 
-9.64185 56.0738 -31.0658 
-11.3977 51.7604 -32.5751 
-13.1535 47.4471 -34.0843 
-14.9093 43.1337 -35.5935 
-16.6651 38.8203 -37.1028 
-18.4209 34.507 -38.612 
-20.1767 30.1936 -40.1212 
-21.9325 25.8802 -41.6305 
-23.6883 21.5668 -43.1397 
-25.4441 17.2535 -44.6489 
-27.1999 12.9401 -46.1582 
-28.9557 8.62674 -47.6674 
-30.7115 4.31337 -49.1767 
-32.4673 0 -50.6859 
0.00185662 77.4107 -23.862 
-1.68123 73.1101 -25.3141 
-3.36432 68.8095 -26.7662 
-5.0474 64.5089 -28.2183 
-6.73049 60.2083 -29.6705 
-8.41358 55.9077 -31.1226 
-10.0967 51.6071 -32.5747 
-11.7798 47.3065 -34.0268 
-13.4628 43.0059 -35.4789 
-15.1459 38.7053 -36.9311 
-16.829 34.4047 -38.3832 
-18.5121 30.1041 -39.8353 
-20.1952 25.8036 -41.2874 
-21.8783 21.503 -42.7395 
-23.5614 17.2024 -44.1917 
-25.2444 12.9018 -45.6438 
-26.9275 8.60118 -47.0959 
-28.6106 4.30059 -48.548 
-30.2937 0 -50.0001 
-0.0825726 76.8992 -22.3142 
-1.74013 72.627 -23.8116 
-3.39768 68.3548 -25.3091 
-5.05524 64.0826 -26.8066 
-6.71279 59.8105 -28.304 
-8.37035 55.5383 -29.8015 
-10.0279 51.2661 -31.299 
-11.6855 46.9939 -32.7965 
-13.343 42.7218 -34.2939 
-15.0006 38.4496 -35.7914 
-16.6581 34.1774 -37.2889 
-18.3157 29.9052 -38.7864 
-19.9732 25.6331 -40.2838 
-21.6308 21.3609 -41.7813 
-23.2883 17.0887 -43.2788 
-24.9459 12.8165 -44.7762 
-26.6035 8.54435 -46.2737 
-28.261 4.27218 -47.7712 
-29.9186 0 -49.2687 
0.987036 76.8689 -23.3571 
-0.631033 72.5984 -24.7822 
-2.2491 68.3279 -26.2073 
-3.86717 64.0574 -27.6325 
-5.48524 59.7869 -29.0576 
-7.10331 55.5164 -30.4827 
-8.72138 51.2459 -31.9079 
-10.3394 46.9754 -33.333 
-11.9575 42.7049 -34.7581 
-13.5756 38.4344 -36.1832 
-15.1936 34.1639 -37.6084 
-16.8117 29.8935 -39.0335 
-18.4298 25.623 -40.4586 
-20.0479 21.3525 -41.8838 
-21.6659 17.082 -43.3089 
-23.284 12.8115 -44.734 
-24.9021 8.54099 -46.1591 
-26.5201 4.27049 -47.5843 
-28.1382 0 -49.0094 
2.98597 77.281 -27.1639 
1.37001 72.9876 -28.4565 
-0.24594 68.6942 -29.7491 
-1.86189 64.4008 -31.0417 
-3.47784 60.1074 -32.3342 
-5.0938 55.814 -33.6268 
-6.70975 51.5206 -34.9194 
-8.3257 47.2272 -36.212 
-9.94165 42.9339 -37.5045 
-11.5576 38.6405 -38.7971 
-13.1736 34.3471 -40.0897 
-14.7895 30.0537 -41.3823 
-16.4055 25.7603 -42.6748 
-18.0214 21.4669 -43.9674 
-19.6374 17.1735 -45.26 
-21.2533 12.8802 -46.5525 
-22.8693 8.58677 -47.8451 
-24.4852 4.29339 -49.1377 
-26.1012 0 -50.4303 
3.25685 77.18 -27.1514 
1.6983 72.8922 -28.3901 
0.139752 68.6045 -29.6287 
-1.4188 64.3167 -30.8674 
-2.97734 60.0289 -32.1061 
-4.53589 55.7411 -33.3448 
-6.09444 51.4534 -34.5834 
-7.65298 47.1656 -35.8221 
-9.21153 42.8778 -37.0608 
-10.7701 38.59 -38.2995 
-12.3286 34.3022 -39.5382 
-13.8872 30.0145 -40.7768 
-15.4457 25.7267 -42.0155 
-17.0043 21.4389 -43.2542 
-18.5628 17.1511 -44.4929 
-20.1214 12.8633 -45.7316 
-21.6799 8.57556 -46.9702 
-23.2385 4.28778 -48.2089 
-24.797 0 -49.4476 
3.0852 77.1311 -26.7785 
1.50274 72.846 -28.0374 
-0.0797272 68.561 -29.2963 
-1.66219 64.2759 -30.5552 
-3.24466 59.9908 -31.8141 
-4.82712 55.7058 -33.073 
-6.40959 51.4207 -34.3319 
-7.99205 47.1357 -35.5908 
-9.57452 42.8506 -36.8497 
-11.157 38.5655 -38.1085 
-12.7395 34.2805 -39.3674 
-14.3219 29.9954 -40.6263 
-15.9044 25.7104 -41.8852 
-17.4868 21.4253 -43.1441 
-19.0693 17.1402 -44.403 
-20.6518 12.8552 -45.6619 
-22.2342 8.57012 -46.9208 
-23.8167 4.28506 -48.1797 
-25.3992 0 -49.4385 
2.25257 76.9699 -25.1609 
0.684629 72.6938 -26.4902 
-0.883315 68.4177 -27.8195 
-2.45126 64.1416 -29.1488 
-4.0192 59.8655 -30.4781 
-5.58715 55.5894 -31.8075 
-7.15509 51.3133 -33.1368 
-8.72303 47.0372 -34.4661 
-10.291 42.7611 -35.7954 
-11.8589 38.485 -37.1247 
-13.4269 34.2088 -38.454 
-14.9948 29.9327 -39.7833 
-16.5628 25.6566 -41.1126 
-18.1307 21.3805 -42.4419 
-19.6986 17.1044 -43.7712 
-21.2666 12.8283 -45.1005 
-22.8345 8.55221 -46.4298 
-24.4025 4.27611 -47.7591 
-25.9704 0 -49.0884 
1.7008 77.2484 -25.4064 
0.0782513 72.9568 -26.7253 
-1.5443 68.6652 -28.0441 
-3.16685 64.3736 -29.3629 
-4.78939 60.0821 -30.6818 
-6.41194 55.7905 -32.0006 
-8.03449 51.4989 -33.3194 
-9.65704 47.2073 -34.6383 
-11.2796 42.9158 -35.9571 
-12.9021 38.6242 -37.2759 
-14.5247 34.3326 -38.5948 
-16.1472 30.041 -39.9136 
-17.7698 25.7495 -41.2324 
-19.3923 21.4579 -42.5513 
-21.0149 17.1663 -43.8701 
-22.6374 12.8747 -45.1889 
-24.26 8.58315 -46.5078 
-25.8825 4.29158 -47.8266 
-27.5051 0 -49.1455 
1.62047 76.8871 -24.1895 
0.000588884 72.6156 -25.5492 
-1.6193 68.3441 -26.9088 
-3.23918 64.0726 -28.2684 
-4.85907 59.8011 -29.6281 
-6.47895 55.5296 -30.9877 
-8.09883 51.2581 -32.3473 
-9.71872 46.9866 -33.707 
-11.3386 42.7151 -35.0666 
-12.9585 38.4436 -36.4262 
-14.5784 34.1721 -37.7859 
-16.1983 29.9006 -39.1455 
-17.8181 25.629 -40.5051 
-19.438 21.3575 -41.8647 
-21.0579 17.086 -43.2244 
-22.6778 12.8145 -44.584 
-24.2977 8.54302 -45.9436 
-25.9176 4.27151 -47.3033 
-27.5375 0 -48.6629 
-1.25796 63.3562 11.6736 
-1.59667 58.8308 9.77627 
-1.93537 54.3054 7.87892 
-2.27408 49.7799 5.98157 
-2.61279 45.2545 4.08422 
-2.9515 40.729 2.18687 
-3.29021 36.2036 0.289516 
-3.62892 31.6781 -1.60783 
-3.96763 27.1527 -3.50519 
-4.30634 22.6272 -5.40254 
-4.64505 18.1018 -7.29989 
-4.98375 13.5763 -9.19724 
-5.32246 9.05089 -11.0946 
-5.66117 4.52545 -12.9919 
-5.99988 0 -14.8893 
-0.714057 63.7551 10.5911 
-1.0965 59.2012 8.72092 
-1.47895 54.6473 6.85072 
-1.86139 50.0933 4.98053 
-2.24384 45.5394 3.11033 
-2.62628 40.9854 1.24013 
-3.00872 36.4315 -0.630063 
-3.39117 31.8776 -2.50026 
-3.77361 27.3236 -4.37045 
-4.15606 22.7697 -6.24065 
-4.5385 18.2158 -8.11085 
-4.92095 13.6618 -9.98104 
-5.30339 9.10788 -11.8512 
-5.68584 4.55394 -13.7214 
-6.06828 0 -15.5916 
0.458157 63.346 11.3407 
0.0763636 58.8213 9.45109 
-0.30543 54.2966 7.56151 
-0.687224 49.7719 5.67193 
-1.06902 45.2471 3.78234 
-1.45081 40.7224 1.89276 
-1.83261 36.1977 0.00317543 
-2.2144 31.673 -1.88641 
-2.59619 27.1483 -3.77599 
-2.97799 22.6236 -5.66558 
-3.35978 18.0989 -7.55516 
-3.74157 13.5741 -9.44474 
-4.12337 9.04943 -11.3343 
-4.50516 4.52471 -13.2239 
-4.88696 0 -15.1135 
-2.16491 63.8368 10.6826 
-2.45123 59.277 8.73348 
-2.73756 54.7173 6.78434 
-3.02389 50.1575 4.83521 
-3.31022 45.5977 2.88608 
-3.59655 41.038 0.93695 
-3.88288 36.4782 -1.01218 
-4.1692 31.9184 -2.96131 
-4.45553 27.3586 -4.91044 
-4.74186 22.7989 -6.85958 
-5.02819 18.2391 -8.80871 
-5.31452 13.6793 -10.7578 
-5.60084 9.11955 -12.707 
-5.88717 4.55977 -14.6561 
-6.1735 0 -16.6052 
4.11611 61.1304 16.2729 
3.56831 56.764 14.7642 
3.02051 52.3975 13.2555 
2.4727 48.0311 11.7467 
1.9249 43.6646 10.238 
1.3771 39.2981 8.72924 
0.829293 34.9317 7.22051 
0.281489 30.5652 5.71177 
-0.266314 26.1988 4.20304 
-0.814117 21.8323 2.6943 
-1.36192 17.4658 1.18557 
-1.90972 13.0994 -0.323167 
-2.45753 8.73292 -1.8319 
-3.00533 4.36646 -3.34064 
-3.55313 -7.10543e-15 -4.84937 
3.71439 61.5479 15.1437 
3.16245 57.1516 13.7322 
2.61052 52.7553 12.3207 
2.05859 48.3591 10.9092 
1.50665 43.9628 9.49775 
0.954721 39.5665 8.08627 
0.402788 35.1702 6.67479 
-0.149145 30.7739 5.26331 
-0.701078 26.3777 3.85183 
-1.25301 21.9814 2.44034 
-1.80494 17.5851 1.02886 
-2.35688 13.1888 -0.38262 
-2.90881 8.79256 -1.7941 
-3.46074 4.39628 -3.20558 
-4.01268 -7.10543e-15 -4.61707 
-4.99073 63.3976 11.9015 
-4.98403 58.8692 9.94392 
-4.97733 54.3408 7.9863 
-4.97063 49.8124 6.02869 
-4.96393 45.284 4.07107 
-4.95723 40.7556 2.11346 
-4.95053 36.2272 0.155841 
-4.94383 31.6988 -1.80177 
-4.93713 27.1704 -3.75939 
-4.93043 22.642 -5.71701 
-4.92372 18.1136 -7.67462 
-4.91702 13.5852 -9.63224 
-4.91032 9.0568 -11.5899 
-4.90362 4.5284 -13.5475 
-4.89692 -7.10543e-15 -15.5051 
-5.6453 63.2498 12.2533 
-5.57474 58.732 10.344 
-5.50419 54.2141 8.43473 
-5.43363 49.6963 6.52543 
-5.36307 45.1784 4.61612 
-5.29252 40.6606 2.70682 
-5.22196 36.1428 0.79752 
-5.15141 31.6249 -1.11178 
-5.08085 27.1071 -3.02108 
-5.01029 22.5892 -4.93039 
-4.93974 18.0714 -6.83969 
-4.86918 13.5535 -8.74899 
-4.79863 9.03569 -10.6583 
-4.72807 4.51784 -12.5676 
-4.65752 7.10543e-15 -14.4769 
-3.82715 63.3964 11.9134 
-3.9919 58.8681 9.97459 
-4.15665 54.3398 8.03576 
-4.3214 49.8115 6.09693 
-4.48614 45.2832 4.1581 
-4.65089 40.7548 2.21927 
-4.81564 36.2265 0.280437 
-4.98039 31.6982 -1.65839 
-5.14514 27.1699 -3.59722 
-5.30989 22.6416 -5.53605 
-5.47463 18.1133 -7.47488 
-5.63938 13.5849 -9.41372 
-5.80413 9.05663 -11.3525 
-5.96888 4.52832 -13.2914 
-6.13363 7.10543e-15 -15.2302 
-3.32601 63.3236 11.9998 
-3.58447 58.8005 10.0964 
-3.84293 54.2774 8.19291 
-4.10139 49.7542 6.28944 
-4.35986 45.2311 4.38597 
-4.61832 40.708 2.4825 
-4.87678 36.1849 0.579035 
-5.13524 31.6618 -1.32443 
-5.3937 27.1387 -3.2279 
-5.65216 22.6156 -5.13137 
-5.91062 18.0925 -7.03484 
-6.16908 13.5693 -8.93831 
-6.42754 9.04623 -10.8418 
-6.686 4.52311 -12.7452 
-6.94446 0 -14.6487 
-6.94459 62.6116 13.6109 
-6.65646 58.1393 11.6949 
-6.36834 53.6671 9.77885 
-6.08022 49.1948 7.86286 
-5.7921 44.7225 5.94686 
-5.50397 40.2503 4.03086 
-5.21585 35.778 2.11486 
-4.92773 31.3058 0.198865 
-4.63961 26.8335 -1.71713 
-4.35148 22.3613 -3.63313 
-4.06336 17.889 -5.54913 
-3.77524 13.4168 -7.46513 
-3.48712 8.94451 -9.38112 
-3.19899 4.47225 -11.2971 
-2.91087 -7.10543e-15 -13.2131 
-6.63575 62.8559 13.0722 
-6.39579 58.3662 11.1769 
-6.15584 53.8765 9.28174 
-5.91589 49.3868 7.38653 
-5.67594 44.8971 5.49132 
-5.43598 40.4074 3.59612 
-5.19603 35.9177 1.70091 
-4.95608 31.428 -0.194297 
-4.71613 26.9382 -2.0895 
-4.47617 22.4485 -3.98471 
-4.23622 17.9588 -5.87992 
-3.99627 13.4691 -7.77513 
-3.75632 8.97941 -9.67033 
-3.51637 4.48971 -11.5655 
-3.27641 0 -13.4607 
-7.11161 62.6505 13.4937 
-6.81401 58.1755 11.5825 
-6.51642 53.7004 9.67127 
-6.21882 49.2254 7.76008 
-5.92122 44.7504 5.84888 
-5.62363 40.2753 3.93769 
-5.32603 35.8003 2.0265 
-5.02843 31.3253 0.115302 
-4.73084 26.8502 -1.79589 
-4.43324 22.3752 -3.70708 
-4.13564 17.9001 -5.61828 
-3.83805 13.4251 -7.52947 
-3.54045 8.95007 -9.44067 
-3.24285 4.47504 -11.3519 
-2.94526 0 -13.2631 
-3.11654 63.8151 10.8481 
-3.36935 59.2569 8.87598 
-3.62215 54.6986 6.90385 
-3.87495 50.1404 4.93172 
-4.12775 45.5822 2.95959 
-4.38056 41.024 0.987457 
-4.63336 36.4658 -0.984673 
-4.88616 31.9075 -2.9568 
-5.13896 27.3493 -4.92893 
-5.39177 22.7911 -6.90106 
-5.64457 18.2329 -8.87319 
-5.89737 13.6747 -10.8453 
-6.15017 9.11644 -12.8175 
-6.40298 4.55822 -14.7896 
-6.65578 0 -16.7617 
-4.08143 63.6741 11.2823 
-4.17356 59.1259 9.31857 
-4.26568 54.5778 7.35482 
-4.35781 50.0296 5.39107 
-4.44993 45.4815 3.42732 
-4.54206 40.9333 1.46357 
-4.63418 36.3852 -0.500174 
-4.72631 31.837 -2.46392 
-4.81843 27.2889 -4.42767 
-4.91056 22.7407 -6.39142 
-5.00268 18.1926 -8.35517 
-5.09481 13.6444 -10.3189 
-5.18693 9.09629 -12.2827 
-5.27906 4.54815 -14.2464 
-5.37118 0 -16.2102 
-0.750666 63.3114 11.6637 
-1.15764 58.7891 9.76612 
-1.56461 54.2669 7.86859 
-1.97158 49.7447 5.97105 
-2.37855 45.2224 4.07351 
-2.78552 40.7002 2.17598 
-3.19249 36.1779 0.278443 
-3.59946 31.6557 -1.61909 
-4.00643 27.1335 -3.51663 
-4.4134 22.6112 -5.41416 
-4.82037 18.089 -7.3117 
-5.22734 13.5667 -9.20924 
-5.63431 9.04448 -11.1068 
-6.04128 4.52224 -13.0043 
-6.44825 0 -14.9018 
2.1858 62.556 12.8596 
1.72068 58.0877 11.0875 
1.25557 53.6195 9.31547 
0.790455 49.1512 7.54341 
0.325341 44.6829 5.77135 
-0.139773 40.2146 3.99929 
-0.604887 35.7463 2.22723 
-1.07 31.278 0.45517 
-1.53512 26.8097 -1.31689 
-2.00023 22.3414 -3.08895 
-2.46534 17.8732 -4.86101 
-2.93046 13.4049 -6.63307 
-3.39557 8.93658 -8.40513 
-3.86069 4.46829 -10.1772 
-4.3258 0 -11.9493 
1.10514 63.1941 11.5976 
0.699085 58.6803 9.79002 
0.293029 54.1664 7.98248 
-0.113028 49.6525 6.17494 
-0.519084 45.1387 4.3674 
-0.925141 40.6248 2.55986 
-1.3312 36.1109 0.752316 
-1.73725 31.5971 -1.05522 
-2.14331 27.0832 -2.86276 
-2.54937 22.5693 -4.6703 
-2.95542 18.0555 -6.47784 
-3.36148 13.5416 -8.28538 
-3.76754 9.02773 -10.0929 
-4.17359 4.51387 -11.9005 
-4.57965 7.10543e-15 -13.708 
-0.716993 58.7322 29.1607 
-0.826097 53.8378 28.7524 
-0.9352 48.9435 28.344 
-1.0443 44.0491 27.9356 
-1.15341 39.1548 27.5272 
-1.26251 34.2604 27.1188 
-1.37162 29.3661 26.7104 
-1.48072 24.4717 26.302 
-1.58982 19.5774 25.8937 
-1.69893 14.683 25.4853 
-1.80803 9.7887 25.0769 
-1.91713 4.89435 24.6685 
-2.02624 0 24.2601 
-1.03173 58.7602 28.9311 
-0.962239 53.8635 28.4525 
-0.892747 48.9668 27.9739 
-0.823254 44.0701 27.4953 
-0.753762 39.1734 27.0167 
-0.68427 34.2768 26.5381 
-0.614777 29.3801 26.0595 
-0.545285 24.4834 25.5809 
-0.475793 19.5867 25.1022 
-0.4063 14.69 24.6236 
-0.336808 9.79336 24.145 
-0.267316 4.89668 23.6664 
-0.197823 0 23.1878 
0.940833 58.8451 27.6058 
0.810168 53.9413 27.0734 
0.679504 49.0376 26.541 
0.54884 44.1338 26.0085 
0.418175 39.2301 25.4761 
0.287511 34.3263 24.9437 
0.156847 29.4225 24.4113 
0.0261824 24.5188 23.8789 
-0.104482 19.615 23.3465 
-0.235146 14.7113 22.8141 
-0.365811 9.80752 22.2817 
-0.496475 4.90376 21.7493 
-0.627139 0 21.2169 
0.990938 58.8327 27.727 
0.70813 53.9299 27.3012 
0.425321 49.0272 26.8755 
0.142513 44.1245 26.4497 
-0.140295 39.2218 26.0239 
-0.423103 34.3191 25.5981 
-0.705912 29.4163 25.1724 
-0.98872 24.5136 24.7466 
-1.27153 19.6109 24.3208 
-1.55434 14.7082 23.895 
-1.83714 9.80544 23.4693 
-2.11995 4.90272 23.0435 
-2.40276 0 22.6177 
0.991295 58.8417 27.6183 
0.615981 53.9382 27.0877 
0.240666 49.0347 26.5571 
-0.134648 44.1313 26.0264 
-0.509962 39.2278 25.4958 
-0.885277 34.3243 24.9651 
-1.26059 29.4208 24.4345 
-1.63591 24.5174 23.9039 
-2.01122 19.6139 23.3732 
-2.38653 14.7104 22.8426 
-2.76185 9.80695 22.312 
-3.13716 4.90347 21.7813 
-3.51248 0 21.2507 
-1.04292 58.7455 29.0865 
-0.935143 53.8501 28.7103 
-0.827366 48.9546 28.334 
-0.719589 44.0592 27.9578 
-0.611812 39.1637 27.5816 
-0.504035 34.2682 27.2053 
-0.396258 29.3728 26.8291 
-0.288481 24.4773 26.4529 
-0.180704 19.5818 26.0766 
-0.0729271 14.6864 25.7004 
0.0348499 9.79092 25.3242 
0.142627 4.89546 24.9479 
0.250404 0 24.5717 
15.9709 76.2028 -45.6585 
14.8473 71.4401 -46.232 
13.7238 66.6774 -46.8054 
12.6002 61.9148 -47.3789 
11.4766 57.1521 -47.9523 
10.353 52.3894 -48.5257 
9.2294 47.6267 -49.0992 
8.10581 42.8641 -49.6726 
6.98222 38.1014 -50.2461 
5.85863 33.3387 -50.8195 
4.73505 28.576 -51.3929 
3.61146 23.8134 -51.9664 
2.48787 19.0507 -52.5398 
1.36428 14.288 -53.1133 
0.240691 9.52535 -53.6867 
-0.882898 4.76267 -54.2601 
-2.00649 0 -54.8336 
16.0084 76.1634 -45.4294 
14.8053 71.4032 -46.0353 
13.6022 66.643 -46.6411 
12.3991 61.8827 -47.247 
11.1961 57.1225 -47.8529 
9.99296 52.3623 -48.4588 
8.78987 47.6021 -49.0647 
7.58678 42.8419 -49.6706 
6.38369 38.0817 -50.2765 
5.18059 33.3215 -50.8824 
3.9775 28.5613 -51.4883 
2.77441 23.8011 -52.0942 
1.57132 19.0408 -52.7001 
0.368229 14.2806 -53.3059 
-0.834862 9.52042 -53.9118 
-2.03795 4.76021 -54.5177 
-3.24104 0 -55.1236 
17.9754 75.787 -46.2452 
16.8284 71.0503 -46.8642 
15.6814 66.3136 -47.4831 
14.5343 61.5769 -48.1021 
13.3873 56.8402 -48.721 
12.2403 52.1036 -49.34 
11.0933 47.3669 -49.9589 
9.94626 42.6302 -50.5778 
8.79924 37.8935 -51.1968 
7.65222 33.1568 -51.8157 
6.5052 28.4201 -52.4347 
5.35818 23.6834 -53.0536 
4.21115 18.9467 -53.6726 
3.06413 14.2101 -54.2915 
1.91711 9.47337 -54.9105 
0.770093 4.73669 -55.5294 
-0.376928 0 -56.1484 
17.9854 75.779 -46.2029 
16.8741 71.0428 -46.8355 
15.7628 66.3066 -47.4681 
14.6515 61.5704 -48.1007 
13.5401 56.8342 -48.7332 
12.4288 52.098 -49.3658 
11.3175 47.3618 -49.9984 
10.2062 42.6257 -50.631 
9.09485 37.8895 -51.2636 
7.98352 33.1533 -51.8961 
6.8722 28.4171 -52.5287 
5.76088 23.6809 -53.1613 
4.64955 18.9447 -53.7939 
3.53823 14.2086 -54.4264 
2.4269 9.47237 -55.059 
1.31558 4.73618 -55.6916 
0.204256 0 -56.3242 
15.6686 76.2442 -45.402 
14.5505 71.4789 -45.908 
13.4325 66.7136 -46.414 
12.3145 61.9484 -46.92 
11.1965 57.1831 -47.426 
10.0784 52.4179 -47.932 
8.9604 47.6526 -48.438 
7.84237 42.8873 -48.944 
6.72434 38.1221 -49.45 
5.60631 33.3568 -49.956 
4.48828 28.5916 -50.462 
3.37025 23.8263 -50.968 
2.25222 19.061 -51.474 
1.13419 14.2958 -51.98 
0.016163 9.53052 -52.486 
-1.10187 4.76526 -52.992 
-2.2199 0 -53.498 
15.8604 76.2192 -45.5807 
14.5823 71.4555 -46.107 
13.3043 66.6918 -46.6333 
12.0262 61.9281 -47.1596 
10.7482 57.1644 -47.6859 
9.47018 52.4007 -48.2122 
8.19214 47.637 -48.7384 
6.91411 42.8733 -49.2647 
5.63607 38.1096 -49.791 
4.35803 33.3459 -50.3173 
3.08 28.5822 -50.8436 
1.80196 23.8185 -51.3699 
0.523928 19.0548 -51.8961 
-0.754107 14.2911 -52.4224 
-2.03214 9.5274 -52.9487 
-3.31018 4.7637 -53.475 
-4.58821 0 -54.0013 
13.9963 76.6356 -45.2818 
12.6504 72.1276 -45.8025 
11.3045 67.6196 -46.3232 
9.9586 63.1117 -46.844 
8.6127 58.6037 -47.3647 
7.26681 54.0957 -47.8854 
5.92091 49.5877 -48.4062 
4.57502 45.0798 -48.9269 
3.22913 40.5718 -49.4477 
1.88323 36.0638 -49.9684 
0.537337 31.5558 -50.4891 
-0.808558 27.0479 -51.0099 
-2.15445 22.5399 -51.5306 
-3.50035 18.0319 -52.0513 
-4.84624 13.5239 -52.5721 
-6.19214 9.01595 -53.0928 
-7.53803 4.50798 -53.6136 
-8.88392 0 -54.1343 
18.0813 75.7624 -46.2877 
16.7679 71.0272 -46.8236 
15.4545 66.2921 -47.3595 
14.1411 61.5569 -47.8953 
12.8278 56.8218 -48.4312 
11.5144 52.0866 -48.967 
10.201 47.3515 -49.5029 
8.88764 42.6163 -50.0388 
7.57427 37.8812 -50.5746 
6.2609 33.146 -51.1105 
4.94752 28.4109 -51.6464 
3.63415 23.6757 -52.1822 
2.32078 18.9406 -52.7181 
1.00741 14.2054 -53.254 
-0.305968 9.4703 -53.7898 
-1.61934 4.73515 -54.3257 
-2.93271 0 -54.8616 
19.5103 75.5465 -47.676 
18.1418 70.8248 -48.3502 
16.7734 66.1032 -49.0245 
15.405 61.3815 -49.6987 
14.0366 56.6599 -50.373 
12.6681 51.9382 -51.0473 
11.2997 47.2165 -51.7215 
9.9313 42.4949 -52.3958 
8.56287 37.7732 -53.07 
7.19445 33.0516 -53.7443 
5.82602 28.3299 -54.4185 
4.4576 23.6083 -55.0928 
3.08918 18.8866 -55.767 
1.72075 14.165 -56.4413 
0.352326 9.44331 -57.1155 
-1.0161 4.72165 -57.7898 
-2.38452 0 -58.4641 
10.5279 77.628 -44.9736 
9.2176 73.0617 -45.4018 
7.90731 68.4953 -45.8301 
6.59701 63.929 -46.2583 
5.28672 59.3626 -46.6866 
3.97643 54.7963 -47.1149 
2.66613 50.2299 -47.5431 
1.35584 45.6635 -47.9714 
0.045548 41.0972 -48.3996 
-1.26474 36.5308 -48.8279 
-2.57504 31.9645 -49.2561 
-3.88533 27.3981 -49.6844 
-5.19562 22.8318 -50.1126 
-6.50592 18.2654 -50.5409 
-7.81621 13.6991 -50.9691 
-9.1265 9.13271 -51.3974 
-10.4368 4.56635 -51.8257 
-11.7471 0 -52.2539 
10.2146 77.7655 -45.4885 
8.94169 73.1911 -45.8456 
7.66879 68.6167 -46.2028 
6.3959 64.0422 -46.56 
5.123 59.4678 -46.9172 
3.85011 54.8933 -47.2743 
2.57721 50.3189 -47.6315 
1.30431 45.7444 -47.9887 
0.0314173 41.17 -48.3459 
-1.24148 36.5955 -48.703 
-2.51437 32.0211 -49.0602 
-3.78727 27.4467 -49.4174 
-5.06017 22.8722 -49.7746 
-6.33306 18.2978 -50.1318 
-7.60596 13.7233 -50.4889 
-8.87885 9.14889 -50.8461 
-10.1518 4.57444 -51.2033 
-11.4246 0 -51.5605 
10.5329 77.6579 -45.2949 
9.23927 73.0898 -45.7266 
7.94561 68.5217 -46.1583 
6.65194 63.9536 -46.59 
5.35828 59.3855 -47.0217 
4.06462 54.8173 -47.4534 
2.77095 50.2492 -47.8851 
1.47729 45.6811 -48.3169 
0.183627 41.113 -48.7486 
-1.11004 36.5449 -49.1803 
-2.4037 31.9768 -49.612 
-3.69736 27.4087 -50.0437 
-4.99103 22.8406 -50.4754 
-6.28469 18.2724 -50.9071 
-7.57835 13.7043 -51.3389 
-8.87201 9.13622 -51.7706 
-10.1657 4.56811 -52.2023 
-11.4593 0 -52.634 
10.1158 77.7439 -44.8993 
8.78015 73.1707 -45.2914 
7.44445 68.5975 -45.6835 
6.10874 64.0244 -46.0756 
4.77304 59.4512 -46.4677 
3.43734 54.878 -46.8598 
2.10164 50.3049 -47.2519 
0.765941 45.7317 -47.644 
-0.56976 41.1585 -48.0361 
-1.90546 36.5853 -48.4282 
-3.24116 32.0122 -48.8203 
-4.57686 27.439 -49.2124 
-5.91256 22.8658 -49.6045 
-7.24826 18.2927 -49.9966 
-8.58397 13.7195 -50.3887 
-9.91967 9.14634 -50.7808 
-11.2554 4.57317 -51.1729 
-12.5911 0 -51.565 
12.3842 77.1762 -45.7693 
11.0655 72.6364 -46.1813 
9.74676 68.0966 -46.5934 
8.42804 63.5568 -47.0054 
7.10932 59.0171 -47.4174 
5.7906 54.4773 -47.8294 
4.47188 49.9375 -48.2414 
3.15316 45.3977 -48.6534 
1.83444 40.858 -49.0655 
0.515725 36.3182 -49.4775 
-0.802994 31.7784 -49.8895 
-2.12171 27.2386 -50.3015 
-3.44043 22.6989 -50.7135 
-4.75915 18.1591 -51.1256 
-6.07787 13.6193 -51.5376 
-7.39659 9.07955 -51.9496 
-8.71531 4.53977 -52.3616 
-10.034 0 -52.7736 
8.32217 78.2883 -45.1892 
6.98324 73.6831 -45.4928 
5.64432 69.0779 -45.7963 
4.3054 64.4727 -46.0999 
2.96648 59.8675 -46.4034 
1.62756 55.2623 -46.707 
0.288639 50.6572 -47.0106 
-1.05028 46.052 -47.3141 
-2.3892 41.4468 -47.6177 
-3.72812 36.8416 -47.9212 
-5.06705 32.2364 -48.2248 
-6.40597 27.6312 -48.5283 
-7.74489 23.026 -48.8319 
-9.08381 18.4208 -49.1355 
-10.4227 13.8156 -49.439 
-11.7617 9.21039 -49.7426 
-13.1006 4.6052 -50.0461 
-14.4395 0 -50.3497 
8.21767 78.2654 -44.5657 
6.794 73.6615 -44.9452 
5.37033 69.0577 -45.3247 
3.94665 64.4538 -45.7041 
2.52298 59.85 -46.0836 
1.09931 55.2462 -46.4631 
-0.324366 50.6423 -46.8425 
-1.74804 46.0385 -47.222 
-3.17171 41.4346 -47.6015 
-4.59539 36.8308 -47.981 
-6.01906 32.2269 -48.3604 
-7.44273 27.6231 -48.7399 
-8.8664 23.0192 -49.1194 
-10.2901 18.4154 -49.4989 
-11.7138 13.8115 -49.8783 
-13.1374 9.20769 -50.2578 
-14.5611 4.60385 -50.6373 
-15.9848 0 -51.0168 
7.92075 78.3929 -44.9844 
6.46835 73.7815 -45.2797 
5.01596 69.1702 -45.5751 
3.56356 64.5589 -45.8704 
2.11116 59.9475 -46.1658 
0.658769 55.3362 -46.4611 
-0.793628 50.7248 -46.7565 
-2.24602 46.1135 -47.0518 
-3.69842 41.5021 -47.3472 
-5.15082 36.8908 -47.6425 
-6.60321 32.2794 -47.9379 
-8.05561 27.6681 -48.2332 
-9.50801 23.0567 -48.5286 
-10.9604 18.4454 -48.8239 
-12.4128 13.834 -49.1193 
-13.8652 9.22269 -49.4146 
-15.3176 4.61135 -49.71 
-16.77 0 -50.0053 
7.7328 78.3967 -44.2725 
6.24069 73.7851 -44.6764 
4.74857 69.1736 -45.0803 
3.25645 64.562 -45.4842 
1.76433 59.9504 -45.888 
0.272215 55.3388 -46.2919 
-1.2199 50.7273 -46.6958 
-2.71202 46.1157 -47.0997 
-4.20414 41.5041 -47.5036 
-5.69626 36.8926 -47.9075 
-7.18837 32.281 -48.3114 
-8.68049 27.6694 -48.7153 
-10.1726 23.0579 -49.1192 
-11.6647 18.4463 -49.5231 
-13.1568 13.8347 -49.927 
-14.649 9.22314 -50.3308 
-16.1411 4.61157 -50.7347 
-17.6332 0 -51.1386 
7.94311 78.3674 -44.7436 
6.42168 73.7576 -45.1117 
4.90026 69.1477 -45.4798 
3.37884 64.5379 -45.8478 
1.85741 59.928 -46.2159 
0.335987 55.3182 -46.584 
-1.18544 50.7083 -46.952 
-2.70686 46.0985 -47.3201 
-4.22828 41.4886 -47.6882 
-5.74971 36.8788 -48.0562 
-7.27113 32.2689 -48.4243 
-8.79256 27.6591 -48.7924 
-10.314 23.0492 -49.1604 
-11.8354 18.4394 -49.5285 
-13.3568 13.8295 -49.8966 
-14.8783 9.2197 -50.2646 
-16.3997 4.60985 -50.6327 
-17.9211 0 -51.0008 
7.63943 78.4735 -44.7817 
6.15793 73.8574 -45.1257 
4.67643 69.2413 -45.4697 
3.19493 64.6253 -45.8136 
1.71343 60.0092 -46.1576 
0.231926 55.3931 -46.5015 
-1.24958 50.777 -46.8455 
-2.73108 46.1609 -47.1894 
-4.21258 41.5448 -47.5334 
-5.69408 36.9287 -47.8774 
-7.17558 32.3126 -48.2213 
-8.65708 27.6965 -48.5653 
-10.1386 23.0804 -48.9092 
-11.6201 18.4644 -49.2532 
-13.1016 13.8483 -49.5971 
-14.5831 9.23218 -49.9411 
-16.0646 4.61609 -50.285 
-17.5461 0 -50.629 
6.44411 78.7279 -43.4992 
4.8672 74.0968 -43.8221 
3.29028 69.4658 -44.1451 
1.71336 64.8347 -44.4681 
0.136448 60.2037 -44.7911 
-1.44047 55.5726 -45.114 
-3.01739 50.9416 -45.437 
-4.5943 46.3105 -45.76 
-6.17122 41.6795 -46.083 
-7.74814 37.0484 -46.406 
-9.32505 32.4174 -46.7289 
-10.902 27.7863 -47.0519 
-12.4789 23.1553 -47.3749 
-14.0558 18.5242 -47.6979 
-15.6327 13.8932 -48.0208 
-17.2096 9.2621 -48.3438 
-18.7866 4.63105 -48.6668 
-20.3635 0 -48.9898 
-17.6212 89.5755 -28.7442 
-20.0953 86.4133 -29.9926 
-22.5693 83.2511 -31.241 
-25.0434 80.0889 -32.4894 
-27.5174 76.9268 -33.7378 
-29.9915 73.7646 -34.9862 
-32.4655 70.6024 -36.2346 
-17.9548 90.003 -29.1997 
-19.4632 85.5029 -29.9251 
-20.9715 81.0027 -30.6504 
-22.4799 76.5026 -31.3758 
-23.9882 72.0024 -32.1012 
-25.4965 67.5023 -32.8266 
-27.0049 63.0021 -33.5519 
-28.5132 58.502 -34.2773 
-30.0216 54.0018 -35.0027 
-31.5299 49.5017 -35.7281 
-33.0383 45.0015 -36.4534 
-34.5466 40.5014 -37.1788 
-36.055 36.0012 -37.9042 
-37.5633 31.5011 -38.6296 
-39.0716 27.0009 -39.3549 
-40.58 22.5008 -40.0803 
-42.0883 18.0006 -40.8057 
-43.5967 13.5005 -41.5311 
-45.105 9.0003 -42.2564 
-46.6134 4.50015 -42.9818 
-48.1217 0 -43.7072 
-17.4511 89.3243 -28.4936 
-20.2073 85.8064 -29.9966 
-22.9634 82.2884 -31.4995 
-25.7196 78.7704 -33.0024 
-28.4757 75.2525 -34.5053 
-31.2319 71.7345 -36.0083 
-16.5046 88.1451 -27.4087 
-18.9903 84.7797 -28.8643 
-21.4761 81.4144 -30.3199 
-23.9618 78.049 -31.7755 
-26.4475 74.6836 -33.2311 
-28.9332 71.3182 -34.6867 
-20.5418 93.5069 -32.9136 
-22.1306 89.0542 -33.5439 
-23.7195 84.6015 -34.1743 
-25.3084 80.1488 -34.8046 
-26.8973 75.6961 -35.4349 
-28.4861 71.2434 -36.0653 
-30.075 66.7907 -36.6956 
-31.6639 62.3379 -37.3259 
-33.2527 57.8852 -37.9562 
-34.8416 53.4325 -38.5866 
-36.4305 48.9798 -39.2169 
-38.0194 44.5271 -39.8472 
-39.6082 40.0744 -40.4776 
-41.1971 35.6217 -41.1079 
-42.786 31.169 -41.7382 
-44.3748 26.7163 -42.3685 
-45.9637 22.2636 -42.9989 
-47.5526 17.8108 -43.6292 
-49.1415 13.3581 -44.2595 
-50.7303 8.90542 -44.8899 
-52.3192 4.45271 -45.5202 
-53.9081 0 -46.1505 
4.57752 79.129 -39.6441 
2.8091 74.733 -40.0589 
1.04068 70.3369 -40.4736 
-0.727743 65.9409 -40.8883 
-2.49616 61.5448 -41.3031 
-4.26458 57.1487 -41.7178 
-6.033 52.7527 -42.1325 
-7.80142 48.3566 -42.5473 
-9.56984 43.9606 -42.962 
-11.3383 39.5645 -43.3767 
-13.1067 35.1685 -43.7915 
-14.8751 30.7724 -44.2062 
-16.6435 26.3763 -44.6209 
-18.4119 21.9803 -45.0357 
-20.1804 17.5842 -45.4504 
-21.9488 13.1882 -45.8651 
-23.7172 8.79211 -46.2799 
-25.4856 4.39606 -46.6946 
-27.254 0 -47.1093 
4.57444 79.0901 -39.2039 
2.81868 74.4377 -39.6252 
1.06293 69.7854 -40.0465 
-0.692819 65.133 -40.4678 
-2.44857 60.4806 -40.8892 
-4.20432 55.8283 -41.3105 
-5.96007 51.1759 -41.7318 
-7.71582 46.5236 -42.1531 
-9.47158 41.8712 -42.5745 
-11.2273 37.2189 -42.9958 
-12.9831 32.5665 -43.4171 
-14.7388 27.9141 -43.8384 
-16.4946 23.2618 -44.2597 
-18.2503 18.6094 -44.6811 
-20.0061 13.9571 -45.1024 
-21.7618 9.30472 -45.5237 
-23.5176 4.65236 -45.945 
-25.2733 0 -46.3663 
13.0702 76.9018 -45.1666 
11.6987 72.3782 -45.6645 
10.3271 67.8545 -46.1624 
8.95554 63.3309 -46.6603 
7.58397 58.8073 -47.1583 
6.21241 54.2836 -47.6562 
4.84084 49.76 -48.1541 
3.46927 45.2364 -48.6521 
2.0977 40.7127 -49.15 
0.726135 36.1891 -49.6479 
-0.645433 31.6654 -50.1458 
-2.017 27.1418 -50.6438 
-3.38857 22.6182 -51.1417 
-4.76014 18.0945 -51.6396 
-6.1317 13.5709 -52.1376 
-7.50327 9.04727 -52.6355 
-8.87484 4.52364 -53.1334 
-10.2464 0 -53.6314 
12.1101 77.1871 -45.0793 
10.7826 72.6467 -45.5347 
9.45523 68.1063 -45.9901 
8.12781 63.5658 -46.4455 
6.8004 59.0254 -46.9009 
5.47299 54.485 -47.3563 
4.14557 49.9446 -47.8117 
2.81816 45.4042 -48.2671 
1.49075 40.8638 -48.7224 
0.163332 36.3233 -49.1778 
-1.16408 31.7829 -49.6332 
-2.4915 27.2425 -50.0886 
-3.81891 22.7021 -50.544 
-5.14632 18.1617 -50.9994 
-6.47374 13.6213 -51.4548 
-7.80115 9.08083 -51.9102 
-9.12856 4.54042 -52.3656 
-10.456 0 -52.821 
15.8741 76.2042 -45.4867 
14.4494 71.4414 -45.9962 
13.0248 66.6786 -46.5058 
11.6002 61.9159 -47.0153 
10.1755 57.1531 -47.5249 
8.75088 52.3904 -48.0344 
7.32624 47.6276 -48.544 
5.90161 42.8648 -49.0535 
4.47697 38.1021 -49.5631 
3.05233 33.3393 -50.0726 
1.6277 28.5766 -50.5822 
0.203062 23.8138 -51.0917 
-1.22157 19.051 -51.6013 
-2.64621 14.2883 -52.1108 
-4.07085 9.52552 -52.6204 
-5.49548 4.76276 -53.1299 
-6.92012 0 -53.6395 
15.8772 76.1959 -45.413 
14.4946 71.4337 -45.9241 
13.1119 66.6714 -46.4351 
11.7292 61.9092 -46.9461 
10.3466 57.1469 -47.4572 
8.96391 52.3847 -47.9682 
7.58124 47.6225 -48.4792 
6.19858 42.8602 -48.9903 
4.81591 38.098 -49.5013 
3.43324 33.3357 -50.0123 
2.05058 28.5735 -50.5234 
0.66791 23.8112 -51.0344 
-0.714757 19.049 -51.5454 
-2.09742 14.2867 -52.0565 
-3.48009 9.52449 -52.5675 
-4.86276 4.76225 -53.0785 
-6.24542 0 -53.5896 
15.9118 76.2016 -45.5375 
14.7788 71.439 -46.1121 
13.6457 66.6764 -46.6866 
12.5127 61.9138 -47.2611 
11.3797 57.1512 -47.8356 
10.2466 52.3886 -48.4101 
9.11357 47.626 -48.9847 
7.98053 42.8634 -49.5592 
6.84748 38.1008 -50.1337 
5.71444 33.3382 -50.7082 
4.5814 28.5756 -51.2827 
3.44836 23.813 -51.8573 
2.31531 19.0504 -52.4318 
1.18227 14.2878 -53.0063 
0.0492298 9.5252 -53.5808 
-1.08381 4.7626 -54.1553 
-2.21686 0 -54.7299 
18.0146 75.7739 -46.2135 
16.8725 71.0381 -46.7207 
15.7303 66.3022 -47.2279 
14.5882 61.5663 -47.7351 
13.446 56.8305 -48.2423 
12.3039 52.0946 -48.7495 
11.1617 47.3587 -49.2567 
10.0196 42.6228 -49.7639 
8.8774 37.887 -50.2711 
7.73524 33.1511 -50.7783 
6.59308 28.4152 -51.2855 
5.45093 23.6794 -51.7927 
4.30877 18.9435 -52.2999 
3.16662 14.2076 -52.8071 
2.02446 9.47174 -53.3143 
0.882304 4.73587 -53.8215 
-0.259852 0 -54.3287 
17.9935 75.7808 -46.2297 
16.837 71.0445 -46.7493 
15.6805 66.3082 -47.2689 
14.5241 61.5719 -47.7884 
13.3676 56.8356 -48.308 
12.2112 52.0993 -48.8275 
11.0547 47.363 -49.3471 
9.89826 42.6267 -49.8667 
8.74181 37.8904 -50.3862 
7.58535 33.1541 -50.9058 
6.4289 28.4178 -51.4254 
5.27244 23.6815 -51.9449 
4.11599 18.9452 -52.4645 
2.95953 14.2089 -52.984 
1.80307 9.4726 -53.5036 
0.646619 4.7363 -54.0232 
-0.509836 0 -54.5427 
4.59951 79.1296 -39.7655 
2.82267 74.7335 -40.1477 
1.04583 70.3374 -40.5299 
-0.731015 65.9414 -40.912 
-2.50786 61.5453 -41.2942 
-4.2847 57.1492 -41.6764 
-6.06154 52.7531 -42.0586 
-7.83838 48.357 -42.4407 
-9.61522 43.9609 -42.8229 
-11.3921 39.5648 -43.2051 
-13.1689 35.1687 -43.5872 
-14.9457 30.7726 -43.9694 
-16.7226 26.3765 -44.3516 
-18.4994 21.9805 -44.7337 
-20.2763 17.5844 -45.1159 
-22.0531 13.1883 -45.4981 
-23.83 8.79218 -45.8802 
-25.6068 4.39609 -46.2624 
-27.3836 0 -46.6446 
-15.4535 86.7356 -26.1985 
-17.8627 83.5141 -27.809 
-20.2719 80.2926 -29.4196 
-22.6811 77.0711 -31.0302 
-25.0902 73.8496 -32.6408 
-27.4994 70.6281 -34.2514 
-16.1455 87.631 -26.9002 
-18.6352 84.3255 -28.5645 
-21.125 81.0199 -30.2289 
-23.6147 77.7144 -31.8933 
-26.1045 74.4088 -33.5577 
-28.5942 71.1033 -35.2221 
-23.7063 98.2571 -41.2778 
-25.4414 93.7909 -41.5657 
-27.1765 89.3246 -41.8536 
-28.9116 84.8584 -42.1415 
-30.6467 80.3922 -42.4295 
-32.3818 75.9259 -42.7174 
-34.1169 71.4597 -43.0053 
-35.852 66.9935 -43.2932 
-37.587 62.5273 -43.5811 
-39.3221 58.061 -43.869 
-41.0572 53.5948 -44.1569 
-42.7923 49.1286 -44.4448 
-44.5274 44.6623 -44.7327 
-46.2625 40.1961 -45.0206 
-47.9976 35.7299 -45.3086 
-49.7327 31.2636 -45.5965 
-51.4678 26.7974 -45.8844 
-53.2029 22.3312 -46.1723 
-54.9379 17.8649 -46.4602 
-56.673 13.3987 -46.7481 
-58.4081 8.93246 -47.036 
-60.1432 4.46623 -47.3239 
-61.8783 0 -47.6118 
-23.6764 98.2091 -41.121 
-25.4202 93.7451 -41.3915 
-27.164 89.281 -41.6619 
-28.9079 84.817 -41.9324 
-30.6517 80.3529 -42.2029 
-32.3955 75.8889 -42.4733 
-34.1394 71.4248 -42.7438 
-35.8832 66.9608 -43.0142 
-37.627 62.4967 -43.2847 
-39.3709 58.0327 -43.5552 
-41.1147 53.5686 -43.8256 
-42.8585 49.1046 -44.0961 
-44.6023 44.6405 -44.3665 
-46.3462 40.1765 -44.637 
-48.09 35.7124 -44.9075 
-49.8338 31.2484 -45.1779 
-51.5777 26.7843 -45.4484 
-53.3215 22.3203 -45.7188 
-55.0653 17.8562 -45.9893 
-56.8092 13.3922 -46.2598 
-58.553 8.9281 -46.5302 
-60.2968 4.46405 -46.8007 
-62.0406 0 -47.0711 
-18.6351 90.8662 -30.0797 
-20.1943 86.3229 -30.8625 
-21.7536 81.7796 -31.6453 
-23.3128 77.2363 -32.4281 
-24.872 72.693 -33.2109 
-26.4312 68.1497 -33.9937 
-27.9904 63.6064 -34.7765 
-29.5496 59.063 -35.5593 
-31.1089 54.5197 -36.3421 
-32.6681 49.9764 -37.1249 
-34.2273 45.4331 -37.9077 
-35.7865 40.8898 -38.6905 
-37.3457 36.3465 -39.4733 
-38.9049 31.8032 -40.2561 
-40.4641 27.2599 -41.0389 
-42.0234 22.7166 -41.8217 
-43.5826 18.1732 -42.6045 
-45.1418 13.6299 -43.3874 
-46.701 9.08662 -44.1702 
-48.2602 4.54331 -44.953 
-49.8194 0 -45.7358 
-18.9795 91.3414 -30.5178 
-20.5753 86.7744 -31.3439 
-22.1711 82.2073 -32.1701 
-23.7669 77.6402 -32.9962 
-25.3627 73.0731 -33.8223 
-26.9585 68.5061 -34.6485 
-28.5543 63.939 -35.4746 
-30.1501 59.3719 -36.3008 
-31.7459 54.8049 -37.1269 
-33.3417 50.2378 -37.953 
-34.9375 45.6707 -38.7792 
-36.5333 41.1036 -39.6053 
-38.1291 36.5366 -40.4315 
-39.7249 31.9695 -41.2576 
-41.3207 27.4024 -42.0837 
-42.9165 22.8354 -42.9099 
-44.5123 18.2683 -43.736 
-46.1081 13.7012 -44.5622 
-47.7039 9.13414 -45.3883 
-49.2997 4.56707 -46.2144 
-50.8955 0 -47.0406 
-13.1503 60.0088 18.1998 
-12.2941 55.3928 16.5074 
-11.4379 50.7767 14.815 
-10.5817 46.1606 13.1225 
-9.72551 41.5446 11.4301 
-8.86929 36.9285 9.73771 
-8.01308 32.3124 8.04529 
-7.15687 27.6964 6.35287 
-6.30066 23.0803 4.66045 
-5.44445 18.4643 2.96803 
-4.58824 13.8482 1.27561 
-3.73203 9.23213 -0.416815 
-2.87582 4.61606 -2.10923 
-2.01961 -7.10543e-15 -3.80165 
-14.6457 59.4454 18.9608 
-13.743 54.8726 17.2731 
-12.8403 50.2999 15.5854 
-11.9375 45.7272 13.8977 
-11.0348 41.1545 12.2099 
-10.1321 36.5818 10.5222 
-9.22933 32.009 8.8345 
-8.3266 27.4363 7.14678 
-7.42387 22.8636 5.45906 
-6.52114 18.2909 3.77134 
-5.61841 13.7182 2.08362 
-4.71567 9.14544 0.395902 
-3.81294 4.57272 -1.29182 
-2.91021 0 -2.97954 
-12.5839 59.8511 18.9166 
-11.7735 55.2472 17.301 
-10.9631 50.6432 15.6855 
-10.1527 46.0393 14.0699 
-9.34227 41.4354 12.4544 
-8.53185 36.8314 10.8388 
-7.72143 32.2275 9.22325 
-6.91101 27.6236 7.60769 
-6.1006 23.0196 5.99214 
-5.29018 18.4157 4.37658 
-4.47976 13.8118 2.76102 
-3.66934 9.20786 1.14547 
-2.85893 4.60393 -0.470091 
-2.04851 0 -2.08565 
-14.6288 59.3793 19.1484 
-13.7341 54.8117 17.5419 
-12.8395 50.244 15.9355 
-11.9449 45.6764 14.3291 
-11.0502 41.1087 12.7227 
-10.1556 36.5411 11.1162 
-9.26094 31.9735 9.50982 
-8.36629 27.4058 7.9034 
-7.47165 22.8382 6.29697 
-6.57701 18.2706 4.69055 
-5.68237 13.7029 3.08413 
-4.78773 9.13528 1.4777 
-3.89308 4.56764 -0.12872 
-2.99844 0 -1.73514 
-15.5956 57.799 23.3484 
-14.6596 53.353 21.9109 
-13.7236 48.9069 20.4734 
-12.7877 44.4608 19.036 
-11.8517 40.0147 17.5985 
-10.9157 35.5686 16.161 
-9.97976 31.1226 14.7235 
-9.04379 26.6765 13.286 
-8.10782 22.2304 11.8486 
-7.17185 17.7843 10.4111 
-6.23588 13.3382 8.9736 
-5.29991 8.89216 7.53612 
-4.36394 4.44608 6.09864 
-3.42797 0 4.66116 
-14.9876 58.6013 21.2647 
-14.0622 54.0935 19.7785 
-13.1368 49.5857 18.2923 
-12.2115 45.0779 16.8061 
-11.2861 40.5701 15.3199 
-10.3608 36.0624 13.8337 
-9.43544 31.5546 12.3475 
-8.51009 27.0468 10.8613 
-7.58474 22.539 9.37512 
-6.65938 18.0312 7.88893 
-5.73403 13.5234 6.40274 
-4.80868 9.01559 4.91655 
-3.88333 4.50779 3.43035 
-2.95798 0 1.94416 
-14.8463 58.4913 21.6952 
-13.9538 53.9919 20.2706 
-13.0612 49.4926 18.846 
-12.1686 44.9933 17.4214 
-11.2761 40.4939 15.9968 
-10.3835 35.9946 14.5722 
-9.49093 31.4953 13.1476 
-8.59837 26.996 11.723 
-7.7058 22.4966 10.2984 
-6.81323 17.9973 8.87382 
-5.92066 13.498 7.44923 
-5.0281 8.99866 6.02463 
-4.13553 4.49933 4.60004 
-3.24296 0 3.17545 
-11.8672 57.3281 27.8507 
-10.7073 52.9183 26.6448 
-9.54745 48.5084 25.4389 
-8.38758 44.0985 24.233 
-7.22772 39.6887 23.0271 
-6.06785 35.2788 21.8212 
-4.90798 30.869 20.6153 
-3.74812 26.4591 19.4094 
-2.58825 22.0493 18.2036 
-1.42838 17.6394 16.9977 
-0.268515 13.2296 15.7918 
0.891352 8.81971 14.5859 
2.05122 4.40985 13.38 
3.21109 0 12.1741 
-12.0689 57.3247 27.6907 
-11.0009 52.9151 26.4516 
-9.93281 48.5055 25.2126 
-8.86477 44.0959 23.9735 
-7.79673 39.6863 22.7345 
-6.72868 35.2767 21.4955 
-5.66064 30.8671 20.2564 
-4.5926 26.4575 19.0174 
-3.52455 22.048 17.7784 
-2.45651 17.6384 16.5393 
-1.38846 13.2288 15.3003 
-0.320421 8.81918 14.0613 
0.747622 4.40959 12.8222 
1.81567 0 11.5832 
-11.7815 57.3821 27.7356 
-10.7141 52.9681 26.5612 
-9.6468 48.5541 25.3868 
-8.57947 44.1401 24.2124 
-7.51214 39.7261 23.038 
-6.44482 35.3121 21.8636 
-5.37749 30.8981 20.6892 
-4.31016 26.4841 19.5148 
-3.24283 22.07 18.3404 
-2.1755 17.656 17.166 
-1.10818 13.242 15.9916 
-0.0408486 8.82802 14.8172 
1.02648 4.41401 13.6428 
2.09381 0 12.4684 
-11.6878 57.3404 27.9975 
-10.5973 52.9296 26.9101 
-9.50674 48.5188 25.8227 
-8.41621 44.108 24.7353 
-7.32568 39.6972 23.6479 
-6.23515 35.2864 22.5605 
-5.14462 30.8756 21.4731 
-4.05409 26.4648 20.3857 
-2.96356 22.054 19.2983 
-1.87303 17.6432 18.2109 
-0.782499 13.2324 17.1235 
0.308032 8.8216 16.0361 
1.39856 4.4108 14.9487 
2.48909 0 13.8613 
-11.7829 57.4132 27.6202 
-10.7977 52.9968 26.4281 
-9.81257 48.5804 25.236 
-8.82741 44.164 24.0439 
-7.84224 39.7476 22.8518 
-6.85708 35.3312 21.6597 
-5.87191 30.9148 20.4676 
-4.88675 26.4984 19.2754 
-3.90159 22.082 18.0833 
-2.91642 17.6656 16.8912 
-1.93126 13.2492 15.6991 
-0.946094 8.83279 14.507 
0.0390696 4.4164 13.3149 
1.02423 0 12.1228 
-13.6774 57.5902 25.4005 
-12.7113 53.1602 24.1113 
-11.7452 48.7302 22.822 
-10.7791 44.3002 21.5328 
-9.81306 39.8701 20.2436 
-8.84699 35.4401 18.9544 
-7.88091 31.0101 17.6652 
-6.91484 26.5801 16.376 
-5.94876 22.1501 15.0868 
-4.98268 17.7201 13.7975 
-4.01661 13.29 12.5083 
-3.05053 8.86003 11.2191 
-2.08446 4.43002 9.92989 
-1.11838 0 8.64068 
-13.878 57.384 25.9571 
-12.8398 52.9699 24.6897 
-11.8016 48.5557 23.4223 
-10.7634 44.1416 22.1549 
-9.72516 39.7274 20.8875 
-8.68695 35.3133 19.6201 
-7.64874 30.8991 18.3527 
-6.61053 26.4849 17.0853 
-5.57232 22.0708 15.8179 
-4.5341 17.6566 14.5505 
-3.49589 13.2425 13.2831 
-2.45768 8.82831 12.0157 
-1.41947 4.41416 10.7483 
-0.38126 0 9.48092 
-13.909 57.5196 25.4652 
-12.9002 53.095 24.1282 
-11.8914 48.6704 22.7912 
-10.8827 44.2459 21.4542 
-9.87389 39.8213 20.1172 
-8.86512 35.3967 18.7802 
-7.85634 30.9721 17.4432 
-6.84756 26.5475 16.1062 
-5.83879 22.1229 14.7692 
-4.83001 17.6983 13.4322 
-3.82123 13.2738 12.0952 
-2.81245 8.84917 10.7582 
-1.80368 4.42459 9.42117 
-0.794898 0 8.08417 
-13.908 57.5794 25.2757 
-12.9372 53.1502 23.9152 
-11.9663 48.721 22.5546 
-10.9955 44.2918 21.1941 
-10.0246 39.8627 19.8336 
-9.05375 35.4335 18.4731 
-8.08291 31.0043 17.1126 
-7.11206 26.5751 15.7521 
-6.14121 22.1459 14.3915 
-5.17036 17.7167 13.031 
-4.19951 13.2876 11.6705 
-3.22866 8.85837 10.31 
-2.25781 4.42918 8.94948 
-1.28696 0 7.58897 
-14.2501 57.4168 25.5393 
-13.2164 53.0001 24.1826 
-12.1827 48.5835 22.8259 
-11.1489 44.1668 21.4691 
-10.1152 39.7501 20.1124 
-9.08149 35.3334 18.7557 
-8.04777 30.9168 17.3989 
-7.01405 26.5001 16.0422 
-5.98032 22.0834 14.6854 
-4.9466 17.6667 13.3287 
-3.91287 13.25 11.972 
-2.87915 8.83336 10.6152 
-1.84543 4.41668 9.2585 
-0.811701 0 7.90176 
-14.4778 58.6213 21.5034 
-13.6142 54.112 20.0244 
-12.7506 49.6026 18.5454 
-11.8869 45.0933 17.0664 
-11.0233 40.584 15.5874 
-10.1597 36.0746 14.1084 
-9.29605 31.5653 12.6294 
-8.43243 27.056 11.1504 
-7.5688 22.5466 9.67142 
-6.70517 18.0373 8.19242 
-5.84155 13.528 6.71342 
-4.97792 9.01866 5.23442 
-4.11429 4.50933 3.75543 
-3.25066 0 2.27643 
-13.7774 58.1709 23.3916 
-12.842 53.6962 22.0198 
-11.9065 49.2215 20.6481 
-10.9711 44.7468 19.2763 
-10.0356 40.2721 17.9045 
-9.1002 35.7975 16.5327 
-8.16475 31.3228 15.161 
-7.22931 26.8481 13.7892 
-6.29386 22.3734 12.4174 
-5.35842 17.8987 11.0456 
-4.42297 13.424 9.67387 
-3.48753 8.94937 8.3021 
-2.55208 4.47468 6.93032 
-1.61664 0 5.55855 
-1.18813 58.7425 29.0403 
-0.959437 53.8473 28.5982 
-0.730743 48.9521 28.1561 
-0.502049 44.0569 27.714 
-0.273355 39.1617 27.2719 
-0.0446609 34.2665 26.8298 
0.184033 29.3713 26.3877 
0.412727 24.476 25.9456 
0.641421 19.5808 25.5035 
0.870115 14.6856 25.0614 
1.09881 9.79042 24.6193 
1.3275 4.89521 24.1772 
1.5562 0 23.7351 
-2.33446 58.5987 30.1161 
-2.09411 53.7155 29.7228 
-1.85375 48.8322 29.3294 
-1.6134 43.949 28.936 
-1.37304 39.0658 28.5427 
-1.13269 34.1826 28.1493 
-0.892335 29.2993 27.756 
-0.651981 24.4161 27.3626 
-0.411626 19.5329 26.9693 
-0.171272 14.6497 26.5759 
0.0690819 9.76645 26.1825 
0.309436 4.88322 25.7892 
0.54979 0 25.3958 
-0.988473 58.7273 29.4191 
-0.909555 53.8334 29.1379 
-0.830636 48.9394 28.8566 
-0.751717 44.0455 28.5754 
-0.672799 39.1515 28.2941 
-0.59388 34.2576 28.0129 
-0.514961 29.3636 27.7316 
-0.436043 24.4697 27.4504 
-0.357124 19.5758 27.1691 
-0.278205 14.6818 26.8878 
-0.199287 9.78788 26.6066 
-0.120368 4.89394 26.3253 
-0.0414496 0 26.0441 
1.19654 58.841 27.4555 
0.708697 53.9376 26.8559 
0.220857 49.0342 26.2564 
-0.266983 44.1308 25.6568 
-0.754823 39.2274 25.0572 
-1.24266 34.3239 24.4576 
-1.7305 29.4205 23.8581 
-2.21834 24.5171 23.2585 
-2.70618 19.6137 22.6589 
-3.19402 14.7103 22.0594 
-3.68186 9.80684 21.4598 
-4.1697 4.90342 20.8602 
-4.65754 0 20.2606 
0.977621 58.8506 27.5563 
0.715045 53.9463 26.9317 
0.452469 49.0421 26.3071 
0.189893 44.1379 25.6825 
-0.0726824 39.2337 25.0579 
-0.335258 34.3295 24.4333 
-0.597834 29.4253 23.8087 
-0.86041 24.5211 23.1841 
-1.12299 19.6169 22.5595 
-1.38556 14.7126 21.9349 
-1.64814 9.80843 21.3104 
-1.91071 4.90421 20.6858 
-2.17329 0 20.0612 
1.06194 58.8326 27.6375 
0.564876 53.9299 27.1442 
0.0678087 49.0272 26.651 
-0.429258 44.1244 26.1578 
-0.926326 39.2217 25.6645 
-1.42339 34.319 25.1713 
-1.92046 29.4163 24.6781 
-2.41753 24.5136 24.1849 
-2.91459 19.6109 23.6916 
-3.41166 14.7081 23.1984 
-3.90873 9.80543 22.7052 
-4.4058 4.90272 22.212 
-4.90286 0 21.7187 
2.95521 58.9875 25.3102 
2.46512 54.45 24.4422 
1.97503 49.9125 23.5743 
1.48494 45.375 22.7063 
0.994854 40.8375 21.8383 
0.504765 36.3 20.9703 
0.0146764 31.7625 20.1023 
-0.475413 27.225 19.2343 
-0.965502 22.6875 18.3664 
-1.45559 18.15 17.4984 
-1.94568 13.6125 16.6304 
-2.43577 9.075 15.7624 
-2.92586 4.5375 14.8944 
-3.41595 0 14.0265 
2.88738 59.1969 24.2377 
2.22478 54.6433 23.4303 
1.56218 50.0897 22.6228 
0.899581 45.5361 21.8153 
0.236983 40.9825 21.0079 
-0.425616 36.4289 20.2004 
-1.08821 31.8753 19.3929 
-1.75081 27.3217 18.5855 
-2.41341 22.7681 17.778 
-3.07601 18.2144 16.9706 
-3.73861 13.6608 16.1631 
-4.40121 9.10722 15.3556 
-5.06381 4.55361 14.5482 
-5.7264 0 13.7407 
3.55914 59.1019 24.1471 
2.86041 54.5556 23.2874 
2.16167 50.0093 22.4277 
1.46294 45.463 21.5681 
0.764203 40.9167 20.7084 
0.0654669 36.3704 19.8487 
-0.633269 31.8241 18.9891 
-1.332 27.2778 18.1294 
-2.03074 22.7315 17.2697 
-2.72948 18.1852 16.4101 
