1850
29.7176 4.30648 17.2382 
28.5585 0 18.401 
42.0742 47.5541 6.62545 
40.9367 43.231 7.81365 
39.7992 38.9079 9.00184 
38.6617 34.5848 10.19 
37.5242 30.2617 11.3782 
36.3867 25.9386 12.5664 
35.2492 21.6155 13.7546 
34.1117 17.2924 14.9428 
32.9742 12.9693 16.131 
31.8367 8.64619 17.3192 
30.6992 4.3231 18.5074 
29.5617 0 19.6956 
-1.77697 56.5095 -23.581 
-1.77043 51.8004 -23.848 
-1.7639 47.0912 -24.1149 
-1.75737 42.3821 -24.3819 
-1.75084 37.673 -24.6489 
-1.74431 32.9639 -24.9159 
-1.73778 28.2547 -25.1829 
-1.73125 23.5456 -25.4499 
-1.72471 18.8365 -25.7169 
-1.71818 14.1274 -25.9839 
-1.71165 9.41825 -26.2508 
-1.70512 4.70912 -26.5178 
-1.69859 0 -26.7848 
36.9786 62.3142 23.2317 
35.7609 57.8632 24.5682 
34.5432 53.4122 25.9048 
33.3255 48.9611 27.2413 
32.1078 44.5101 28.5779 
30.8901 40.0591 29.9144 
29.6724 35.6081 31.251 
28.4547 31.1571 32.5876 
27.237 26.7061 33.9241 
26.0193 22.2551 35.2607 
24.8016 17.8041 36.5972 
23.5839 13.353 37.9338 
22.3662 8.90203 39.2703 
21.1485 4.45101 40.6069 
19.9308 -7.10543e-15 41.9434 
-1.69183 55.7531 -14.1895 
-1.39937 51.107 -14.8127 
-1.10691 46.4609 -15.436 
-0.814445 41.8148 -16.0593 
-0.521984 37.1687 -16.6826 
-0.229523 32.5226 -17.3059 
0.0629373 27.8766 -17.9292 
0.355398 23.2305 -18.5525 
0.647859 18.5844 -19.1757 
0.94032 13.9383 -19.799 
1.23278 9.29218 -20.4223 
1.52524 4.64609 -21.0456 
1.8177 0 -21.6689 
-6.64349 57.2982 -31.5748 
-6.80884 52.5234 -32.2769 
-6.97418 47.7485 -32.979 
-7.13953 42.9737 -33.6811 
-7.30487 38.1988 -34.3832 
-7.47021 33.424 -35.0854 
-7.63556 28.6491 -35.7875 
-7.8009 23.8743 -36.4896 
-7.96624 19.0994 -37.1917 
-8.13159 14.3246 -37.8938 
-8.29693 9.5497 -38.5959 
-8.46227 4.77485 -39.298 
-8.62762 0 -40.0001 
-6.72637 57.2964 -31.5417 
-6.90412 52.5217 -32.2849 
-7.08186 47.747 -33.028 
-7.25961 42.9723 -33.7712 
-7.43736 38.1976 -34.5144 
-7.6151 33.4229 -35.2575 
-7.79285 28.6482 -36.0007 
-7.97059 23.8735 -36.7439 
-8.14834 19.0988 -37.4871 
-8.32609 14.3241 -38.2302 
-8.50383 9.54941 -38.9734 
-8.68158 4.7747 -39.7166 
-8.85932 0 -40.4598 
-1.22107 56.336 -19.4638 
-1.22721 51.6413 -19.7419 
-1.23334 46.9467 -20.0201 
-1.23947 42.252 -20.2982 
-1.24561 37.5573 -20.5764 
-1.25174 32.8627 -20.8545 
-1.25787 28.168 -21.1327 
-1.26401 23.4733 -21.4108 
-1.27014 18.7787 -21.689 
-1.27627 14.084 -21.9671 
-1.28241 9.38934 -22.2453 
-1.28854 4.69467 -22.5235 
-1.29467 0 -22.8016 
0.179039 56.3118 -19.0852 
0.0864452 51.6191 -19.4143 
-0.00614819 46.9265 -19.7435 
-0.0987416 42.2338 -20.0726 
-0.191335 37.5412 -20.4018 
-0.283928 32.8485 -20.7309 
-0.376522 28.1559 -21.06 
-0.469115 23.4632 -21.3892 
-0.561708 18.7706 -21.7183 
-0.654302 14.0779 -22.0474 
-0.746895 9.38529 -22.3766 
-0.839489 4.69265 -22.7057 
-0.932082 0 -23.0348 
-10.4372 58.2641 -35.5656 
-10.9039 53.4087 -36.5252 
-11.3706 48.5534 -37.4847 
-11.8373 43.6981 -38.4443 
-12.304 38.8427 -39.4038 
-12.7707 33.9874 -40.3634 
-13.2374 29.132 -41.323 
-13.7041 24.2767 -42.2825 
-14.1708 19.4214 -43.2421 
-14.6375 14.566 -44.2016 
-15.1042 9.71068 -45.1612 
-15.5708 4.85534 -46.1208 
-16.0375 0 -47.0803 
43.3517 47.9418 8.38461 
42.2319 43.5834 9.63702 
41.112 39.2251 10.8894 
39.9922 34.8667 12.1418 
38.8723 30.5084 13.3942 
37.7525 26.1501 14.6466 
36.6327 21.7917 15.899 
35.5128 17.4334 17.1514 
34.393 13.075 18.4039 
33.2731 8.71668 19.6563 
32.1533 4.35834 20.9087 
31.0334 0 22.1611 
43.0667 47.8434 7.98718 
41.9471 43.494 9.23176 
40.8275 39.1446 10.4763 
39.7078 34.7952 11.7209 
38.5882 30.4458 12.9655 
37.4685 26.0964 14.2101 
36.3489 21.747 15.4546 
35.2293 17.3976 16.6992 
34.1096 13.0482 17.9438 
32.99 8.6988 19.1884 
31.8704 4.3494 20.433 
30.7507 0 21.6775 
-2.14747 55.0666 -9.2307 
-1.77784 50.4777 -9.94051 
-1.40821 45.8888 -10.6503 
-1.03858 41.2999 -11.3601 
-0.668945 36.7111 -12.0699 
-0.299314 32.1222 -12.7797 
0.0703176 27.5333 -13.4896 
0.439949 22.9444 -14.1994 
0.80958 18.3555 -14.9092 
1.17921 13.7666 -15.619 
1.54884 9.17776 -16.3288 
1.91847 4.58888 -17.0386 
2.28811 0 -17.7484 
-1.23262 56.2424 -18.2344 
-1.13661 51.5556 -18.6402 
-1.04059 46.8687 -19.0461 
-0.944576 42.1818 -19.4519 
-0.848561 37.495 -19.8577 
-0.752546 32.8081 -20.2636 
-0.656531 28.1212 -20.6694 
-0.560516 23.4344 -21.0752 
-0.464501 18.7475 -21.4811 
-0.368486 14.0606 -21.8869 
-0.272471 9.37374 -22.2927 
-0.176455 4.68687 -22.6985 
-0.0804404 0 -23.1044 
44.9756 48.5591 10.7287 
43.8212 44.1446 12.0428 
42.6668 39.7302 13.3569 
41.5124 35.3157 14.671 
40.358 30.9012 15.9851 
39.2036 26.4868 17.2992 
38.0492 22.0723 18.6133 
36.8949 17.6579 19.9274 
35.7405 13.2434 21.2415 
34.5861 8.82893 22.5555 
33.4317 4.41446 23.8696 
32.2773 0 25.1837 
-5.81742 57.1262 -30.5078 
-5.92699 52.3657 -31.1514 
-6.03655 47.6052 -31.7951 
-6.14612 42.8447 -32.4387 
-6.25568 38.0841 -33.0824 
-6.36525 33.3236 -33.726 
-6.47481 28.5631 -34.3696 
-6.58438 23.8026 -35.0133 
-6.69394 19.0421 -35.6569 
-6.80351 14.2816 -36.3006 
-6.91308 9.52104 -36.9442 
-7.02264 4.76052 -37.5879 
-7.13221 0 -38.2315 
0.135526 56.0496 -15.8041 
0.171849 51.3788 -16.2196 
0.208171 46.708 -16.635 
0.244494 42.0372 -17.0504 
0.280817 37.3664 -17.4658 
0.317139 32.6956 -17.8813 
0.353462 28.0248 -18.2967 
0.389785 23.354 -18.7121 
0.426107 18.6832 -19.1275 
0.46243 14.0124 -19.543 
0.498752 9.34161 -19.9584 
0.535075 4.6708 -20.3738 
0.571398 0 -20.7892 
40.7567 47.2731 4.89109 
39.6017 42.9755 6.05085 
38.4467 38.678 7.2106 
37.2917 34.3804 8.37036 
36.1368 30.0829 9.53011 
34.9818 25.7853 10.6899 
33.8268 21.4878 11.8496 
32.6718 17.1902 13.0094 
31.5168 12.8927 14.1691 
30.3618 8.5951 15.3289 
29.2068 4.29755 16.4886 
28.0518 0 17.6484 
44.8041 48.4927 10.4808 
43.6656 44.0843 11.7781 
42.5272 39.6758 13.0754 
41.3887 35.2674 14.3727 
40.2502 30.859 15.67 
39.1117 26.4506 16.9673 
37.9733 22.0421 18.2645 
36.8348 17.6337 19.5618 
35.6963 13.2253 20.8591 
34.5578 8.81685 22.1564 
33.4193 4.40843 23.4537 
32.2809 0 24.751 
-2.32431 55.3192 -11.3466 
-1.89947 50.7093 -11.9182 
-1.47462 46.0994 -12.4898 
-1.04978 41.4894 -13.0614 
-0.624935 36.8795 -13.633 
-0.20009 32.2696 -14.2046 
0.224754 27.6596 -14.7762 
0.649599 23.0497 -15.3478 
1.07444 18.4397 -15.9194 
1.49929 13.8298 -16.491 
1.92413 9.21987 -17.0626 
2.34898 4.60994 -17.6342 
2.77382 0 -18.2058 
-1.44841 55.9732 -15.6739 
-1.26066 51.3088 -16.1783 
-1.07291 46.6443 -16.6827 
-0.885161 41.9799 -17.1871 
-0.697411 37.3155 -17.6915 
-0.509662 32.651 -18.196 
-0.321912 27.9866 -18.7004 
-0.134162 23.3222 -19.2048 
0.0535882 18.6577 -19.7092 
0.241338 13.9933 -20.2137 
0.429088 9.32887 -20.7181 
0.616838 4.66443 -21.2225 
0.804588 0 -21.7269 
43.9676 48.1532 9.25541 
42.8398 43.7757 10.5171 
41.712 39.3981 11.7788 
40.5842 35.0205 13.0404 
39.4565 30.643 14.3021 
38.3287 26.2654 15.5638 
37.2009 21.8878 16.8255 
36.0731 17.5103 18.0872 
34.9453 13.1327 19.3488 
33.8175 8.75513 20.6105 
32.6897 4.37757 21.8722 
31.5619 0 23.1339 
-11.5128 51.5252 0.610983 
-10.559 46.8411 -0.725957 
-9.60513 42.157 -2.0629 
-8.65128 37.4729 -3.39984 
-7.69743 32.7888 -4.73678 
-6.74358 28.1047 -6.07372 
-5.78973 23.4205 -7.41066 
-4.83588 18.7364 -8.7476 
-3.88203 14.0523 -10.0845 
-2.92818 9.36822 -11.4215 
-1.97433 4.68411 -12.7584 
-1.02049 0 -14.0954 
-3.99957 56.8519 -28.2573 
-3.98781 52.1143 -28.7429 
-3.97606 47.3766 -29.2284 
-3.9643 42.6389 -29.7139 
-3.95255 37.9013 -30.1995 
-3.9408 33.1636 -30.685 
-3.92904 28.426 -31.1706 
-3.91729 23.6883 -31.6561 
-3.90553 18.9506 -32.1417 
-3.89378 14.213 -32.6272 
-3.88202 9.47532 -33.1127 
-3.87027 4.73766 -33.5983 
-3.85851 0 -34.0838 
49.6612 51.6797 19.1136 
48.5684 47.3731 20.4179 
47.4756 43.0665 21.7222 
46.3828 38.7598 23.0265 
45.29 34.4532 24.3308 
44.1972 30.1465 25.6351 
43.1044 25.8399 26.9394 
42.0115 21.5332 28.2437 
40.9187 17.2266 29.548 
39.8259 12.9199 30.8523 
38.7331 8.61329 32.1566 
37.6403 4.30665 33.4609 
36.5475 0 34.7652 
-10.521 52.0265 -0.293237 
-9.48577 47.6909 -1.60914 
-8.4505 43.3554 -2.92505 
-7.41522 39.0199 -4.24095 
-6.37995 34.6843 -5.55686 
-5.34467 30.3488 -6.87276 
-4.3094 26.0132 -8.18866 
-3.27412 21.6777 -9.50457 
-2.23885 17.3422 -10.8205 
-1.20357 13.0066 -12.1364 
-0.168298 8.67108 -13.4523 
0.866977 4.33554 -14.7682 
1.90225 0 -16.0841 
-10.3128 52.1453 -0.543559 
-9.37594 47.7999 -1.70629 
-8.43909 43.4544 -2.86903 
-7.50224 39.109 -4.03176 
-6.56539 34.7635 -5.19449 
-5.62854 30.4181 -6.35722 
-4.69169 26.0727 -7.51996 
-3.75484 21.7272 -8.68269 
-2.81799 17.3818 -9.84542 
-1.88114 13.0363 -11.0082 
-0.944292 8.69089 -12.1709 
-0.0074414 4.34544 -13.3336 
0.929409 0 -14.4964 
-10.0977 52.0858 -0.138953 
-9.131 47.7454 -1.38955 
-8.16426 43.4049 -2.64015 
-7.19752 39.0644 -3.89074 
-6.23078 34.7239 -5.14134 
-5.26405 30.3834 -6.39194 
-4.29731 26.0429 -7.64254 
-3.33057 21.7024 -8.89313 
-2.36383 17.3619 -10.1437 
-1.3971 13.0215 -11.3943 
-0.430358 8.68097 -12.6449 
0.53638 4.34049 -13.8955 
1.50312 0 -15.1461 
49.8471 51.87 19.536 
48.7453 47.5475 20.8476 
47.6435 43.225 22.1593 
46.5417 38.9025 23.4709 
45.4399 34.58 24.7826 
44.3381 30.2575 26.0942 
43.2363 25.935 27.4058 
42.1345 21.6125 28.7175 
41.0327 17.29 30.0291 
39.9309 12.9675 31.3407 
38.8292 8.645 32.6524 
37.7274 4.3225 33.964 
36.6256 0 35.2757 
-2.86998 56.6902 -26.3864 
-2.81306 51.9661 -26.7641 
-2.75615 47.2419 -27.1418 
-2.69923 42.5177 -27.5195 
-2.64231 37.7935 -27.8973 
-2.58539 33.0693 -28.275 
-2.52847 28.3451 -28.6527 
-2.47155 23.6209 -29.0304 
-2.41463 18.8967 -29.4081 
-2.35772 14.1726 -29.7858 
-2.3008 9.44837 -30.1635 
-2.24388 4.72419 -30.5412 
-2.18696 0 -30.9189 
-1.89704 56.7307 -26.7454 
-1.87684 52.0031 -27.1191 
-1.85665 47.2755 -27.4927 
-1.83646 42.548 -27.8664 
-1.81626 37.8204 -28.2401 
-1.79607 33.0929 -28.6138 
-1.77588 28.3653 -28.9874 
-1.75568 23.6378 -29.3611 
-1.73549 18.9102 -29.7348 
-1.7153 14.1827 -30.1085 
-1.6951 9.45511 -30.4821 
-1.67491 4.72755 -30.8558 
-1.65472 0 -31.2295 
-1.22646 56.3238 -19.2766 
-1.17992 51.6301 -19.6127 
-1.13338 46.9365 -19.9488 
-1.08684 42.2428 -20.2849 
-1.0403 37.5492 -20.6211 
-0.993756 32.8555 -20.9572 
-0.947214 28.1619 -21.2933 
-0.900672 23.4682 -21.6294 
-0.85413 18.7746 -21.9656 
-0.807589 14.0809 -22.3017 
-0.761047 9.3873 -22.6378 
-0.714505 4.69365 -22.974 
-0.667963 0 -23.3101 
-6.71918 53.6652 -4.20006 
-6.07872 49.1931 -5.0732 
-5.43826 44.721 -5.94634 
-4.7978 40.2489 -6.81948 
-4.15734 35.7768 -7.69262 
-3.51687 31.3047 -8.56576 
-2.87641 26.8326 -9.4389 
-2.23595 22.3605 -10.312 
-1.59549 17.8884 -11.1852 
-0.95503 13.4163 -12.0583 
-0.314569 8.94421 -12.9315 
0.325892 4.4721 -13.8046 
0.966353 0 -14.6777 
-9.67391 52.4675 -1.22858 
-8.83324 48.0952 -2.42509 
-7.99257 43.7229 -3.6216 
-7.15191 39.3506 -4.81811 
-6.31124 34.9783 -6.01463 
-5.47057 30.606 -7.21114 
-4.62991 26.2337 -8.40765 
-3.78924 21.8614 -9.60416 
-2.94857 17.4892 -10.8007 
-2.10791 13.1169 -11.9972 
-1.26724 8.74458 -13.1937 
-0.426575 4.37229 -14.3902 
0.414092 0 -15.5867 
42.1897 47.5787 6.77434 
41.0562 43.2533 7.98012 
39.9227 38.928 9.1859 
38.7892 34.6027 10.3917 
37.6557 30.2773 11.5975 
36.5222 25.952 12.8032 
35.3887 21.6267 14.009 
34.2552 17.3013 15.2148 
33.1217 12.976 16.4206 
31.9882 8.65067 17.6264 
30.8547 4.32533 18.8322 
29.7212 0 20.0379 
-3.17611 56.7311 -26.9332 
-3.13313 52.0035 -27.3303 
-3.09015 47.2759 -27.7273 
-3.04717 42.5483 -28.1244 
-3.00419 37.8207 -28.5215 
-2.96121 33.0931 -28.9185 
-2.91824 28.3655 -29.3156 
-2.87526 23.6379 -29.7127 
-2.83228 18.9104 -30.1097 
-2.7893 14.1828 -30.5068 
-2.74632 9.45518 -30.9039 
-2.70334 4.72759 -31.3009 
-2.66036 0 -31.698 
-1.46303 55.9627 -15.5729 
-1.25317 51.2991 -16.1266 
-1.04332 46.6356 -16.6804 
-0.833461 41.972 -17.2341 
-0.623604 37.3085 -17.7879 
-0.413748 32.6449 -18.3417 
-0.203891 27.9814 -18.8954 
0.00596605 23.3178 -19.4492 
0.215823 18.6542 -20.0029 
0.42568 13.9907 -20.5567 
0.635537 9.32712 -21.1105 
0.845393 4.66356 -21.6642 
1.05525 0 -22.218 
-1.49297 55.9377 -15.4041 
-1.25313 51.2762 -16.0631 
-1.01329 46.6147 -16.7221 
-0.773457 41.9533 -17.3811 
-0.533618 37.2918 -18.0401 
-0.29378 32.6303 -18.6991 
-0.0539418 27.9688 -19.3582 
0.185896 23.3074 -20.0172 
0.425735 18.6459 -20.6762 
0.665573 13.9844 -21.3352 
0.905411 9.32295 -21.9942 
1.14525 4.66147 -22.6532 
1.38509 0 -23.3122 
-0.449974 55.8663 -14.5196 
-0.193352 51.2108 -15.1251 
0.0632689 46.5552 -15.7307 
0.31989 41.8997 -16.3362 
0.576512 37.2442 -16.9418 
0.833133 32.5887 -17.5474 
1.08975 27.9331 -18.1529 
1.34638 23.2776 -18.7585 
1.603 18.6221 -19.364 
1.85962 13.9666 -19.9696 
2.11624 9.31105 -20.5751 
2.37286 4.65552 -21.1807 
2.62948 0 -21.7862 
-1.39197 56.4166 -21.8394 
-1.25804 51.7152 -22.0967 
-1.12411 47.0138 -22.3541 
-0.990176 42.3124 -22.6114 
-0.856245 37.6111 -22.8688 
-0.722313 32.9097 -23.1261 
-0.588382 28.2083 -23.3834 
-0.45445 23.5069 -23.6408 
-0.320519 18.8055 -23.8981 
-0.186587 14.1041 -24.1554 
-0.0526554 9.40277 -24.4128 
0.0812762 4.70138 -24.6701 
0.215208 0 -24.9275 
-1.4425 56.4406 -22.1716 
-1.39702 51.7372 -22.4664 
-1.35153 47.0338 -22.7612 
-1.30604 42.3304 -23.056 
-1.26056 37.6271 -23.3507 
-1.21507 32.9237 -23.6455 
-1.16958 28.2203 -23.9403 
-1.1241 23.5169 -24.2351 
-1.07861 18.8135 -24.5299 
-1.03313 14.1101 -24.8247 
-0.987639 9.40676 -25.1194 
-0.942152 4.70338 -25.4142 
-0.896666 0 -25.709 
48.8897 50.9646 17.4676 
47.7231 46.3315 18.8728 
46.5565 41.6983 20.2781 
45.3898 37.0652 21.6833 
44.2232 32.432 23.0885 
43.0566 27.7989 24.4937 
41.89 23.1657 25.8989 
40.7234 18.5326 27.3041 
39.5567 13.8994 28.7093 
38.3901 9.2663 30.1145 
37.2235 4.63315 31.5197 
36.0569 0 32.9249 
40.3975 47.2198 4.45757 
39.2187 42.9271 5.57783 
38.0399 38.6344 6.69808 
36.8611 34.3417 7.81834 
35.6823 30.049 8.93859 
34.5035 25.7563 10.0588 
33.3247 21.4636 11.1791 
32.1459 17.1708 12.2994 
30.9671 12.8781 13.4196 
29.7883 8.58542 14.5399 
28.6095 4.29271 15.6601 
27.4307 0 16.7804 
-0.27922 56.4784 -22.8192 
-0.30446 51.7718 -23.0163 
-0.329701 47.0653 -23.2134 
-0.354941 42.3588 -23.4104 
-0.380181 37.6522 -23.6075 
-0.405421 32.9457 -23.8046 
-0.430661 28.2392 -24.0016 
-0.455902 23.5327 -24.1987 
-0.481142 18.8261 -24.3958 
-0.506382 14.1196 -24.5928 
-0.531622 9.41306 -24.7899 
-0.556863 4.70653 -24.9869 
-0.582103 0 -25.184 
-3.11208 56.8838 -28.5227 
-3.13006 52.1435 -28.9839 
-3.14804 47.4032 -29.4451 
-3.16601 42.6629 -29.9063 
-3.18399 37.9225 -30.3675 
-3.20197 33.1822 -30.8287 
-3.21995 28.4419 -31.2899 
-3.23793 23.7016 -31.7511 
-3.25591 18.9613 -32.2123 
-3.27389 14.221 -32.6735 
-3.29186 9.48063 -33.1347 
-3.30984 4.74032 -33.5959 
-3.32782 0 -34.0571 
-3.22458 56.9366 -29.0978 
-3.2872 52.1919 -29.5277 
-3.34983 47.4471 -29.9577 
-3.41246 42.7024 -30.3877 
-3.47509 37.9577 -30.8176 
-3.53772 33.213 -31.2476 
-3.60034 28.4683 -31.6776 
-3.66297 23.7236 -32.1076 
-3.7256 18.9789 -32.5375 
-3.78823 14.2341 -32.9675 
-3.85086 9.48943 -33.3975 
-3.91348 4.74471 -33.8274 
-3.97611 0 -34.2574 
-5.95949 53.9791 -5.32324 
-5.33074 49.4808 -6.11177 
-4.702 44.9826 -6.90031 
-4.07325 40.4843 -7.68884 
-3.4445 35.9861 -8.47737 
-2.81575 31.4878 -9.26591 
-2.187 26.9895 -10.0544 
-1.55826 22.4913 -10.843 
-0.929508 17.993 -11.6315 
-0.30076 13.4948 -12.42 
0.327988 8.99651 -13.2086 
0.956736 4.49826 -13.9971 
1.58548 0 -14.7856 
-6.71244 57.4931 -32.799 
-6.92479 52.702 -33.546 
-7.13714 47.9109 -34.293 
-7.3495 43.1198 -35.04 
-7.56185 38.3287 -35.787 
-7.7742 33.5376 -36.534 
-7.98656 28.7466 -37.2811 
-8.19891 23.9555 -38.0281 
-8.41127 19.1644 -38.7751 
-8.62362 14.3733 -39.5221 
-8.83597 9.58218 -40.2691 
-9.04833 4.79109 -41.0161 
-9.26068 0 -41.7631 
-3.65567 54.9044 -8.99805 
-3.26556 50.329 -9.67886 
-2.87545 45.7537 -10.3597 
-2.48534 41.1783 -11.0405 
-2.09524 36.6029 -11.7213 
-1.70513 32.0276 -12.4021 
-1.31502 27.4522 -13.0829 
-0.924908 22.8768 -13.7637 
-0.534799 18.3015 -14.4445 
-0.14469 13.7261 -15.1253 
0.245419 9.15073 -15.8061 
0.635528 4.57537 -16.4869 
1.02564 0 -17.1678 
-2.58248 55.0844 -9.59287 
-2.18065 50.4941 -10.2492 
-1.77881 45.9037 -10.9055 
-1.37698 41.3133 -11.5618 
-0.975141 36.7229 -12.2181 
-0.573306 32.1326 -12.8743 
-0.17147 27.5422 -13.5306 
0.230366 22.9518 -14.1869 
0.632201 18.3615 -14.8432 
1.03404 13.7711 -15.4995 
1.43587 9.18074 -16.1558 
1.83771 4.59037 -16.8121 
2.23954 0 -17.4684 
-2.78053 54.9144 -8.6232 
-2.40647 50.3382 -9.32126 
-2.03241 45.762 -10.0193 
-1.65835 41.1858 -10.7174 
-1.28429 36.6096 -11.4155 
-0.910226 32.0334 -12.1135 
-0.536165 27.4572 -12.8116 
-0.162103 22.881 -13.5097 
0.211958 18.3048 -14.2077 
0.586019 13.7286 -14.9058 
0.96008 9.1524 -15.6039 
1.33414 4.5762 -16.3019 
1.7082 0 -17 
48.8774 50.9531 17.4412 
47.7045 46.321 18.8267 
46.5315 41.6889 20.2123 
45.3586 37.0568 21.5979 
44.1856 32.4247 22.9834 
43.0127 27.7926 24.369 
41.8397 23.1605 25.7545 
40.6668 18.5284 27.1401 
39.4938 13.8963 28.5257 
38.3209 9.26419 29.9112 
37.1479 4.6321 31.2968 
35.975 0 32.6823 
48.8692 50.9675 17.4547 
47.6963 46.3341 18.8493 
46.5235 41.7007 20.2438 
45.3507 37.0673 21.6384 
44.1778 32.4339 23.033 
43.005 27.8004 24.4275 
41.8321 23.167 25.8221 
40.6593 18.5336 27.2166 
39.4865 13.9002 28.6112 
38.3136 9.26682 30.0058 
37.1408 4.63341 31.4003 
35.9679 0 32.7949 
42.4359 47.6534 7.11522 
41.2971 43.3213 8.34076 
40.1584 38.9892 9.56629 
39.0196 34.657 10.7918 
37.8808 30.3249 12.0174 
36.742 25.9928 13.2429 
35.6033 21.6607 14.4684 
34.4645 17.3285 15.694 
33.3257 12.9964 16.9195 
32.1869 8.66426 18.1451 
31.0482 4.33213 19.3706 
29.9094 0 20.5961 
42.1099 47.6817 6.85647 
40.9742 43.347 8.08059 
39.8386 39.0123 9.30471 
38.703 34.6776 10.5288 
37.5674 30.3429 11.7529 
36.4317 26.0082 12.9771 
35.2961 21.6735 14.2012 
34.1605 17.3388 15.4253 
33.0249 13.0041 16.6494 
31.8892 8.6694 17.8735 
30.7536 4.3347 19.0976 
29.618 0 20.3218 
-2.95065 57.9434 -25.0029 
-2.84574 53.1148 -25.3748 
-2.74084 48.2862 -25.7468 
-2.63593 43.4576 -26.1188 
-2.53103 38.6289 -26.4907 
-2.42612 33.8003 -26.8627 
-2.32122 28.9717 -27.2346 
-2.21632 24.1431 -27.6066 
-2.11141 19.3145 -27.9786 
-2.00651 14.4859 -28.3505 
-1.9016 9.65724 -28.7225 
-1.7967 4.82862 -29.0944 
-1.69179 0 -29.4664 
-2.19667 57.5655 -19.0079 
-2.06767 52.7684 -19.4185 
-1.93867 47.9712 -19.829 
-1.80966 43.1741 -20.2395 
-1.68066 38.377 -20.6501 
-1.55166 33.5799 -21.0606 
-1.42266 28.7827 -21.4711 
-1.29365 23.9856 -21.8817 
-1.16465 19.1885 -22.2922 
-1.03565 14.3914 -22.7028 
-0.906645 9.59425 -23.1133 
-0.777643 4.79712 -23.5238 
-0.64864 0 -23.9344 
-1.52132 57.499 -18.01 
-1.34529 52.7074 -18.4782 
-1.16926 47.9158 -18.9464 
-0.993228 43.1243 -19.4147 
-0.817196 38.3327 -19.8829 
-0.641164 33.5411 -20.3511 
-0.465131 28.7495 -20.8193 
-0.289099 23.9579 -21.2875 
-0.113067 19.1663 -21.7558 
0.0629648 14.3748 -22.224 
0.238997 9.58317 -22.6922 
0.415029 4.79158 -23.1604 
0.591061 0 -23.6286 
-1.3137 57.5896 -18.9694 
-1.20259 52.7905 -19.3822 
-1.09147 47.9913 -19.795 
-0.980358 43.1922 -20.2078 
-0.869243 38.3931 -20.6206 
-0.758128 33.5939 -21.0334 
-0.647014 28.7948 -21.4462 
-0.535899 23.9957 -21.859 
-0.424784 19.1965 -22.2718 
-0.31367 14.3974 -22.6846 
-0.202555 9.59827 -23.0975 
-0.0914401 4.79913 -23.5103 
0.0196747 0 -23.9231 
-2.02244 57.6122 -19.4781 
-1.92997 52.8111 -19.7979 
-1.83749 48.0101 -20.1177 
-1.74502 43.2091 -20.4375 
-1.65255 38.4081 -20.7573 
-1.56007 33.6071 -21.0771 
-1.4676 28.8061 -21.3969 
-1.37513 24.0051 -21.7167 
-1.28265 19.2041 -22.0365 
-1.19018 14.403 -22.3563 
-1.09771 9.60203 -22.6761 
-1.00523 4.80101 -22.9959 
-0.912761 0 -23.3157 
-10.4607 53.4308 -0.911338 
-9.48543 48.9782 -2.14747 
-8.51016 44.5257 -3.38361 
-7.53489 40.0731 -4.61974 
-6.55961 35.6205 -5.85588 
-5.58434 31.168 -7.09202 
-4.60907 26.7154 -8.32815 
-3.6338 22.2628 -9.56429 
-2.65853 17.8103 -10.8004 
-1.68325 13.3577 -12.0366 
-0.707981 8.90513 -13.2727 
0.267291 4.45257 -14.5088 
1.24256 0 -15.745 
-2.90357 57.4275 -18.1312 
-2.5629 52.6419 -18.659 
-2.22223 47.8563 -19.1868 
-1.88156 43.0706 -19.7146 
-1.54088 38.285 -20.2424 
-1.20021 33.4994 -20.7702 
-0.85954 28.7138 -21.298 
-0.518868 23.9281 -21.8259 
-0.178196 19.1425 -22.3537 
0.162476 14.3569 -22.8815 
0.503148 9.57125 -23.4093 
0.84382 4.78563 -23.9371 
1.18449 0 -24.4649 
-2.89104 57.3923 -17.798 
-2.58036 52.6096 -18.3518 
-2.26968 47.8269 -18.9055 
-1.959 43.0442 -19.4593 
-1.64832 38.2615 -20.013 
-1.33764 33.4788 -20.5668 
-1.02696 28.6961 -21.1205 
-0.716281 23.9134 -21.6743 
-0.405601 19.1308 -22.228 
-0.0949218 14.3481 -22.7818 
0.215758 9.56538 -23.3355 
0.526437 4.78269 -23.8892 
0.837116 0 -24.443 
-2.51465 57.577 -19.2361 
-2.30506 52.779 -19.7156 
-2.09547 47.9809 -20.1952 
-1.88588 43.1828 -20.6747 
-1.67629 38.3847 -21.1543 
-1.4667 33.5866 -21.6338 
-1.25711 28.7885 -22.1134 
-1.04752 23.9904 -22.5929 
-0.837935 19.1923 -23.0725 
-0.628345 14.3943 -23.552 
-0.418756 9.59617 -24.0316 
-0.209167 4.79809 -24.5111 
0.000422656 0 -24.9906 
-2.06968 57.5144 -18.3476 
-1.82725 52.7215 -18.844 
-1.58482 47.9286 -19.3404 
-1.34239 43.1358 -19.8368 
-1.09996 38.3429 -20.3332 
-0.857533 33.55 -20.8296 
-0.615103 28.7572 -21.326 
-0.372673 23.9643 -21.8224 
-0.130243 19.1715 -22.3188 
0.112187 14.3786 -22.8152 
0.354618 9.58573 -23.3116 
0.597048 4.79286 -23.808 
0.839478 0 -24.3044 
-6.23393 58.3203 -29.1168 
-6.2291 53.4603 -29.7431 
-6.22427 48.6002 -30.3694 
-6.21945 43.7402 -30.9957 
-6.21462 38.8802 -31.6221 
-6.20979 34.0202 -32.2484 
-6.20497 29.1601 -32.8747 
-6.20014 24.3001 -33.501 
-6.19531 19.4401 -34.1273 
-6.19049 14.5801 -34.7536 
-6.18566 9.72005 -35.3799 
-6.18083 4.86002 -36.0062 
-6.17601 0 -36.6325 
-6.37566 58.2969 -28.9359 
-6.35521 53.4388 -29.5504 
-6.33477 48.5808 -30.1648 
-6.31433 43.7227 -30.7793 
-6.29389 38.8646 -31.3938 
-6.27344 34.0065 -32.0082 
-6.253 29.1485 -32.6227 
-6.23256 24.2904 -33.2372 
-6.21211 19.4323 -33.8516 
-6.19167 14.5742 -34.4661 
-6.17123 9.71615 -35.0806 
-6.15079 4.85808 -35.695 
-6.13034 0 -36.3095 
-6.35648 58.3154 -29.0794 
-6.37463 53.4557 -29.7398 
-6.39277 48.5961 -30.4002 
-6.41091 43.7365 -31.0606 
-6.42906 38.8769 -31.721 
-6.4472 34.0173 -32.3815 
-6.46534 29.1577 -33.0419 
-6.48348 24.2981 -33.7023 
-6.50163 19.4385 -34.3627 
-6.51977 14.5788 -35.0231 
-6.53791 9.71923 -35.6835 
-6.55606 4.85961 -36.3439 
-6.5742 0 -37.0043 
-9.36969 54.1027 -2.55978 
-8.47973 49.5942 -3.60045 
-7.58976 45.0856 -4.64111 
-6.6998 40.577 -5.68177 
-5.80984 36.0685 -6.72244 
-4.91987 31.5599 -7.7631 
-4.02991 27.0514 -8.80376 
-3.13995 22.5428 -9.84443 
-2.24998 18.0342 -10.8851 
-1.36002 13.5257 -11.9258 
-0.470054 9.01712 -12.9664 
0.41991 4.50856 -14.0071 
1.30987 0 -15.0477 
-9.74884 53.924 -2.12723 
-8.81136 49.4303 -3.28472 
-7.87389 44.9366 -4.44221 
-6.93642 40.443 -5.59969 
-5.99895 35.9493 -6.75718 
-5.06147 31.4557 -7.91467 
-4.124 26.962 -9.07216 
-3.18653 22.4683 -10.2296 
-2.24906 17.9747 -11.3871 
-1.31158 13.481 -12.5446 
-0.374112 8.98733 -13.7021 
0.56336 4.49366 -14.8596 
1.50083 0 -16.0171 
-10.6178 53.4492 -1.0969 
-9.62094 48.9951 -2.31737 
-8.62413 44.541 -3.53785 
-7.62731 40.0869 -4.75833 
-6.6305 35.6328 -5.97881 
-5.63368 31.1787 -7.19928 
-4.63686 26.7246 -8.41976 
-3.64005 22.2705 -9.64024 
-2.64323 17.8164 -10.8607 
-1.64642 13.3623 -12.0812 
-0.649599 8.9082 -13.3017 
0.347217 4.4541 -14.5221 
1.34403 0 -15.7426 
44.6222 48.9829 8.21695 
43.4801 44.5299 9.51462 
42.338 40.0769 10.8123 
41.1959 35.6239 12.11 
40.0538 31.171 13.4076 
38.9117 26.718 14.7053 
37.7696 22.265 16.003 
36.6275 17.812 17.3007 
35.4854 13.359 18.5983 
34.3433 8.90599 19.896 
33.2012 4.45299 21.1937 
32.0591 0 22.4914 
-4.83052 56.135 -9.57601 
-4.39229 51.457 -10.2073 
-3.95406 46.7791 -10.8386 
-3.51582 42.1012 -11.4699 
-3.07759 37.4233 -12.1012 
-2.63936 32.7454 -12.7325 
-2.20112 28.0675 -13.3638 
-1.76289 23.3896 -13.9951 
-1.32466 18.7117 -14.6264 
-0.886424 14.0337 -15.2577 
-0.448191 9.35583 -15.889 
-0.00995721 4.67791 -16.5203 
0.428276 0 -17.1516 
-4.85366 56.1249 -9.52154 
-4.21511 51.4478 -10.2169 
-3.57656 46.7708 -10.9123 
-2.938 42.0937 -11.6076 
-2.29945 37.4166 -12.303 
-1.66089 32.7395 -12.9983 
-1.02234 28.0625 -13.6937 
-0.383786 23.3854 -14.3891 
0.254768 18.7083 -15.0844 
0.893322 14.0312 -15.7798 
1.53188 9.35415 -16.4751 
2.17043 4.67708 -17.1705 
2.80898 0 -17.8658 
-4.8388 56.1256 -9.51239 
-4.30942 51.4485 -10.1768 
-3.78004 46.7713 -10.8411 
-3.25066 42.0942 -11.5055 
-2.72128 37.4171 -12.1698 
-2.1919 32.7399 -12.8342 
-1.66252 28.0628 -13.4986 
-1.13314 23.3857 -14.1629 
-0.603756 18.7085 -14.8273 
-0.0743758 14.0314 -15.4916 
0.455005 9.35426 -16.156 
0.984385 4.67713 -16.8203 
1.51377 0 -17.4847 
51.064 53.3724 19.885 
49.9262 48.9247 21.228 
48.7883 44.477 22.571 
47.6505 40.0293 23.914 
46.5127 35.5816 25.2571 
45.3748 31.1339 26.6001 
44.237 26.6862 27.9431 
43.0992 22.2385 29.2862 
41.9613 17.7908 30.6292 
40.8235 13.3431 31.9722 
39.6857 8.89539 33.3153 
38.5478 4.4477 34.6583 
37.41 0 36.0013 
50.8602 53.1631 19.4172 
49.7316 48.7329 20.7493 
48.6031 44.3026 22.0814 
47.4746 39.8723 23.4136 
46.346 35.4421 24.7457 
45.2175 31.0118 26.0778 
44.0889 26.5816 27.4099 
42.9604 22.1513 28.7421 
41.8318 17.721 30.0742 
40.7033 13.2908 31.4063 
39.5747 8.86052 32.7385 
38.4462 4.43026 34.0706 
37.3177 0 35.4027 
-11.5272 52.8166 0.403637 
-10.5634 48.4152 -0.818085 
-9.59969 44.0139 -2.03981 
-8.63596 39.6125 -3.26153 
-7.67222 35.2111 -4.48325 
-6.70849 30.8097 -5.70497 
-5.74475 26.4083 -6.92669 
-4.78102 22.0069 -8.14841 
-3.81728 17.6055 -9.37014 
-2.85354 13.2042 -10.5919 
-1.88981 8.80277 -11.8136 
-0.926073 4.40139 -13.0353 
0.0376631 0 -14.257 
-11.4128 52.8799 0.288349 
-10.3176 48.4733 -1.00398 
-9.22243 44.0666 -2.2963 
-8.12727 39.6599 -3.58862 
-7.03211 35.2533 -4.88095 
-5.93695 30.8466 -6.17327 
-4.84179 26.44 -7.4656 
-3.74663 22.0333 -8.75792 
-2.65147 17.6266 -10.0502 
-1.55631 13.22 -11.3426 
-0.461146 8.81332 -12.6349 
0.634014 4.40666 -13.9272 
1.72917 0 -15.2195 
-3.08677 57.6814 -20.9841 
-3.02148 52.8746 -21.3094 
-2.9562 48.0678 -21.6347 
-2.89092 43.2611 -21.96 
-2.82564 38.4543 -22.2853 
-2.76035 33.6475 -22.6106 
-2.69507 28.8407 -22.9359 
-2.62979 24.0339 -23.2612 
-2.5645 19.2271 -23.5865 
-2.49922 14.4204 -23.9118 
-2.43394 9.61357 -24.2371 
-2.36866 4.80678 -24.5624 
-2.30337 0 -24.8877 
-3.22436 57.7307 -22.2092 
-2.95125 52.9198 -22.4807 
-2.67815 48.1089 -22.7522 
-2.40504 43.298 -23.0237 
-2.13194 38.4871 -23.2952 
-1.85883 33.6762 -23.5667 
-1.58573 28.8653 -23.8382 
-1.31262 24.0544 -24.1097 
-1.03952 19.2436 -24.3812 
-0.766416 14.4327 -24.6527 
-0.493311 9.62178 -24.9242 
-0.220206 4.81089 -25.1957 
0.0528982 0 -25.4672 
-2.35213 57.7964 -22.4965 
-2.22839 52.98 -22.7883 
-2.10466 48.1637 -23.08 
-1.98092 43.3473 -23.3718 
-1.85719 38.5309 -23.6635 
-1.73345 33.7146 -23.9553 
-1.60972 28.8982 -24.247 
-1.48598 24.0818 -24.5388 
-1.36224 19.2655 -24.8305 
-1.23851 14.4491 -25.1223 
-1.11477 9.63273 -25.4141 
-0.991038 4.81637 -25.7058 
-0.867303 0 -25.9976 
-2.21415 57.7718 -22.0779 
-2.12448 52.9575 -22.466 
-2.0348 48.1432 -22.8542 
-1.94512 43.3289 -23.2423 
-1.85544 38.5146 -23.6305 
-1.76577 33.7002 -24.0187 
-1.67609 28.8859 -24.4068 
-1.58641 24.0716 -24.795 
-1.49673 19.2573 -25.1831 
-1.40706 14.443 -25.5713 
-1.31738 9.62864 -25.9594 
-1.2277 4.81432 -26.3476 
-1.13802 0 -26.7358 
-2.42391 57.743 -21.827 
-2.35911 52.9311 -22.2176 
-2.2943 48.1192 -22.6083 
-2.2295 43.3073 -22.9989 
-2.1647 38.4954 -23.3895 
-2.0999 33.6834 -23.7801 
-2.0351 28.8715 -24.1707 
-1.97029 24.0596 -24.5613 
-1.90549 19.2477 -24.9519 
-1.84069 14.4358 -25.3425 
-1.77589 9.62384 -25.7331 
-1.71109 4.81192 -26.1237 
-1.64629 0 -26.5144 
-2.18949 56.8105 -12.9721 
-1.81441 52.0763 -13.6701 
-1.43933 47.3421 -14.3682 
-1.06424 42.6079 -15.0662 
-0.689161 37.8737 -15.7643 
-0.314079 33.1395 -16.4624 
0.0610035 28.4053 -17.1604 
0.436086 23.6711 -17.8585 
0.811168 18.9368 -18.5565 
1.18625 14.2026 -19.2546 
1.56133 9.46842 -19.9526 
1.93642 4.73421 -20.6507 
2.3115 0 -21.3487 
46.5316 49.8583 11.1267 
45.3805 45.3257 12.4754 
44.2295 40.7931 13.8241 
43.0784 36.2606 15.1727 
41.9273 31.728 16.5214 
40.7762 27.1954 17.8701 
39.6251 22.6629 19.2188 
38.474 18.1303 20.5674 
37.3229 13.5977 21.9161 
36.1719 9.06514 23.2648 
35.0208 4.53257 24.6135 
33.8697 0 25.9622 
-2.79398 56.5749 -11.7296 
-2.35291 51.8603 -12.3641 
-1.91183 47.1458 -12.9986 
-1.47075 42.4312 -13.6332 
-1.02967 37.7166 -14.2677 
-0.588592 33.002 -14.9022 
-0.147513 28.2875 -15.5368 
0.293565 23.5729 -16.1713 
0.734643 18.8583 -16.8058 
1.17572 14.1437 -17.4404 
1.6168 9.42915 -18.0749 
2.05788 4.71458 -18.7094 
2.49896 0 -19.344 
-3.10718 56.6041 -12.1296 
-2.70077 51.8871 -12.8229 
-2.29436 47.1701 -13.5162 
-1.88796 42.4531 -14.2096 
-1.48155 37.7361 -14.9029 
-1.07514 33.0191 -15.5962 
-0.668729 28.3021 -16.2896 
-0.26232 23.585 -16.9829 
0.144089 18.868 -17.6762 
0.550498 14.151 -18.3696 
0.956906 9.43402 -19.0629 
1.36332 4.71701 -19.7563 
1.76972 0 -20.4496 
-2.74299 57.1711 -15.9882 
-2.44735 52.4068 -16.6429 
-2.1517 47.6425 -17.2976 
-1.85606 42.8783 -17.9522 
-1.56042 38.114 -18.6069 
-1.26478 33.3498 -19.2616 
-0.969135 28.5855 -19.9162 
-0.673493 23.8213 -20.5709 
-0.377852 19.057 -21.2256 
-0.0822096 14.2928 -21.8803 
0.213432 9.52851 -22.5349 
0.509074 4.76425 -23.1896 
0.804716 0 -23.8443 
-3.01041 57.1125 -15.6608 
-2.74034 52.3531 -16.2733 
-2.47028 47.5937 -16.8859 
-2.20022 42.8344 -17.4984 
-1.93016 38.075 -18.1109 
-1.6601 33.3156 -18.7235 
-1.39003 28.5562 -19.336 
-1.11997 23.7969 -19.9486 
-0.849908 19.0375 -20.5611 
-0.579846 14.2781 -21.1736 
-0.309784 9.51875 -21.7862 
-0.0397214 4.75937 -22.3987 
0.230341 0 -23.0113 
-2.81401 57.1478 -15.8507 
-2.55545 52.3855 -16.4951 
-2.29689 47.6232 -17.1395 
-2.03833 42.8609 -17.7839 
-1.77978 38.0986 -18.4283 
-1.52122 33.3362 -19.0727 
-1.26266 28.5739 -19.7171 
-1.00411 23.8116 -20.3615 
-0.74555 19.0493 -21.0059 
-0.486993 14.287 -21.6503 
-0.228436 9.52464 -22.2948 
0.0301209 4.76232 -22.9392 
0.288678 0 -23.5836 
51.3747 53.6915 20.5969 
50.2193 49.2172 21.946 
49.0638 44.7429 23.295 
47.9084 40.2686 24.6441 
46.753 35.7943 25.9931 
45.5975 31.32 27.3422 
44.4421 26.8457 28.6912 
43.2866 22.3715 30.0403 
42.1312 17.8972 31.3893 
40.9758 13.4229 32.7384 
39.8203 8.94858 34.0874 
38.6649 4.47429 35.4365 
37.5094 0 36.7855 
47.54 50.4156 12.7712 
46.3753 45.8324 14.1388 
45.2105 41.2492 15.5064 
44.0458 36.6659 16.8739 
42.881 32.0827 18.2415 
41.7162 27.4994 19.6091 
40.5515 22.9162 20.9767 
39.3867 18.333 22.3443 
38.222 13.7497 23.7119 
37.0572 9.16648 25.0795 
35.8925 4.58324 26.4471 
34.7277 0 27.8147 
47.1782 50.2158 12.177 
46.0219 45.6507 13.541 
44.8657 41.0856 14.905 
43.7095 36.5206 16.269 
42.5532 31.9555 17.633 
41.397 27.3904 18.997 
40.2408 22.8253 20.361 
39.0845 18.2603 21.725 
37.9283 13.6952 23.0891 
36.7721 9.13014 24.4531 
35.6158 4.56507 25.8171 
34.4596 0 27.1811 
-2.29128 57.9071 -24.3667 
-2.20928 53.0815 -24.7301 
-2.12728 48.2559 -25.0935 
-2.04528 43.4303 -25.4569 
-1.96328 38.6047 -25.8203 
-1.88128 33.7791 -26.1837 
-1.79928 28.9536 -26.5471 
-1.71728 24.128 -26.9105 
-1.63528 19.3024 -27.2739 
-1.55328 14.4768 -27.6373 
-1.47128 9.65119 -28.0007 
-1.38928 4.82559 -28.3641 
-1.30728 0 -28.7274 
-9.56536 59.1609 -33.4665 
-9.84736 54.61 -34.2995 
-10.1294 50.0592 -35.1326 
-10.4114 45.5084 -35.9657 
-10.6933 40.9575 -36.7988 
-10.9753 36.4067 -37.6319 
-11.2573 31.8558 -38.4649 
-11.5393 27.305 -39.298 
-11.8213 22.7542 -40.1311 
-12.1033 18.2033 -40.9642 
-12.3853 13.6525 -41.7972 
-12.6673 9.10167 -42.6303 
-12.9493 4.55084 -43.4634 
-13.2313 0 -44.2965 
48.2535 50.8993 14.0533 
47.0828 46.2721 15.4485 
45.9121 41.6449 16.8438 
44.7413 37.0177 18.239 
43.5706 32.3905 19.6342 
42.3998 27.7633 21.0294 
41.2291 23.1361 22.4247 
40.0583 18.5088 23.8199 
38.8876 13.8816 25.2151 
37.7169 9.25442 26.6103 
36.5461 4.62721 28.0056 
35.3754 0 29.4008 
48.1891 50.8554 13.938 
47.0185 46.2322 15.3321 
45.8479 41.609 16.7263 
44.6773 36.9858 18.1204 
43.5067 32.3625 19.5145 
42.3361 27.7393 20.9087 
41.1655 23.1161 22.3028 
39.995 18.4929 23.697 
38.8244 13.8697 25.0911 
37.6538 9.24644 26.4852 
36.4832 4.62322 27.8794 
35.3126 0 29.2735 
-10.7805 59.7465 -35.9905 
-11.1875 55.1506 -36.939 
-11.5946 50.5547 -37.8875 
-12.0016 45.9589 -38.8361 
-12.4086 41.363 -39.7846 
-12.8157 36.7671 -40.7331 
-13.2227 32.1712 -41.6816 
-13.6297 27.5753 -42.6302 
-14.0368 22.9794 -43.5787 
-14.4438 18.3835 -44.5272 
-14.8508 13.7877 -45.4757 
-15.2579 9.19177 -46.4243 
-15.6649 4.59589 -47.3728 
-16.0719 0 -48.3213 
-11.5892 52.8634 0.188244 
-10.456 48.4581 -1.00785 
-9.32271 44.0528 -2.20395 
-8.18944 39.6475 -3.40005 
-7.05617 35.2422 -4.59615 
-5.9229 30.837 -5.79225 
-4.78964 26.4317 -6.98835 
-3.65637 22.0264 -8.18445 
-2.5231 17.6211 -9.38054 
-1.38984 13.2158 -10.5766 
-0.256568 8.81056 -11.7727 
0.876699 4.40528 -12.9688 
2.00997 0 -14.1649 
-11.6651 52.8414 0.198175 
-10.6309 48.438 -0.960542 
-9.59681 44.0345 -2.11926 
-8.56267 39.6311 -3.27798 
-7.52854 35.2276 -4.43669 
-6.49441 30.8242 -5.59541 
-5.46028 26.4207 -6.75413 
-4.42615 22.0173 -7.91285 
-3.39202 17.6138 -9.07156 
-2.35788 13.2104 -10.2303 
-1.32375 8.80691 -11.389 
-0.289621 4.40345 -12.5477 
0.74451 0 -13.7064 
-3.78282 57.93 -25.1624 
-3.67113 53.1025 -25.5887 
-3.55944 48.275 -26.015 
-3.44775 43.4475 -26.4413 
-3.33606 38.62 -26.8677 
-3.22437 33.7925 -27.294 
-3.11268 28.965 -27.7203 
-3.00099 24.1375 -28.1466 
-2.8893 19.31 -28.5729 
-2.77761 14.4825 -28.9992 
-2.66592 9.65499 -29.4255 
-2.55423 4.8275 -29.8519 
-2.44253 0 -30.2782 
-3.18624 56.9682 -14.5538 
-2.85313 52.2209 -15.2012 
-2.52002 47.4735 -15.8486 
-2.1869 42.7262 -16.4961 
-1.85379 37.9788 -17.1435 
-1.52068 33.2315 -17.791 
-1.18756 28.4841 -18.4384 
-0.854452 23.7368 -19.0858 
-0.521339 18.9894 -19.7333 
-0.188226 14.2421 -20.3807 
0.144887 9.49471 -21.0282 
0.477999 4.74735 -21.6756 
0.811112 0 -22.3231 
-3.41358 56.7668 -13.3698 
-3.02245 52.0362 -14.0815 
-2.63133 47.3056 -14.7931 
-2.24021 42.5751 -15.5047 
-1.84908 37.8445 -16.2164 
-1.45796 33.1139 -16.928 
-1.06683 28.3834 -17.6396 
-0.67571 23.6528 -18.3512 
-0.284586 18.9223 -19.0629 
0.106538 14.1917 -19.7745 
0.497662 9.46113 -20.4861 
0.888786 4.73056 -21.1978 
1.27991 0 -21.9094 
-2.36263 56.9453 -13.979 
-2.02509 52.1998 -14.6378 
-1.68754 47.4544 -15.2966 
-1.35 42.709 -15.9554 
-1.01246 37.9635 -16.6142 
-0.674918 33.2181 -17.273 
-0.337376 28.4726 -17.9318 
0.000165658 23.7272 -18.5906 
0.337708 18.9818 -19.2494 
0.67525 14.2363 -19.9082 
1.01279 9.49088 -20.567 
1.35033 4.74544 -21.2258 
1.68788 0 -21.8846 
-5.32187 58.1792 -27.9435 
-5.26526 53.331 -28.5163 
-5.20865 48.4827 -29.0891 
-5.15204 43.6344 -29.6619 
-5.09543 38.7862 -30.2346 
-5.03882 33.9379 -30.8074 
-4.98221 29.0896 -31.3802 
-4.9256 24.2413 -31.953 
-4.86898 19.3931 -32.5257 
-4.81237 14.5448 -33.0985 
-4.75576 9.69654 -33.6713 
-4.69915 4.84827 -34.2441 
-4.64254 0 -34.8168 
43.7076 48.6688 6.94354 
42.5541 44.2443 8.21806 
41.4007 39.8199 9.49259 
40.2472 35.3955 10.7671 
39.0937 30.971 12.0416 
37.9402 26.5466 13.3162 
36.7868 22.1222 14.5907 
35.6333 17.6977 15.8652 
34.4798 13.2733 17.1397 
33.3264 8.84887 18.4143 
32.1729 4.42443 19.6888 
31.0194 0 20.9633 
43.8383 48.7086 7.11621 
42.6994 44.2806 8.40165 
41.5605 39.8525 9.68708 
40.4215 35.4245 10.9725 
39.2826 30.9964 12.258 
38.1436 26.5683 13.5434 
37.0047 22.1403 14.8288 
35.8657 17.7122 16.1143 
34.7268 13.2842 17.3997 
33.5879 8.85611 18.6852 
32.4489 4.42806 19.9706 
31.31 0 21.256 
-2.97008 57.1597 -15.9979 
-2.70492 52.3964 -16.6163 
-2.43976 47.6331 -17.2348 
-2.1746 42.8698 -17.8533 
-1.90944 38.1064 -18.4718 
-1.64428 33.3431 -19.0903 
-1.37912 28.5798 -19.7087 
-1.11396 23.8165 -20.3272 
-0.848805 19.0532 -20.9457 
-0.583645 14.2899 -21.5642 
-0.318485 9.52661 -22.1827 
-0.0533246 4.76331 -22.8011 
0.211835 0 -23.4196 
-1.40956 57.4223 -17.1839 
-1.18913 52.6371 -17.6606 
-0.968706 47.8519 -18.1373 
-0.748279 43.0667 -18.614 
-0.527851 38.2815 -19.0907 
-0.307424 33.4963 -19.5674 
-0.0869973 28.7111 -20.0441 
0.13343 23.9259 -20.5208 
0.353857 19.1408 -20.9976 
0.574284 14.3556 -21.4743 
0.794711 9.57038 -21.951 
1.01514 4.78519 -22.4277 
1.23557 0 -22.9044 
-7.79341 54.7936 -4.64628 
-7.02874 50.2275 -5.52804 
-6.26407 45.6614 -6.40981 
-5.49939 41.0952 -7.29157 
-4.73472 36.5291 -8.17333 
-3.97004 31.963 -9.0551 
-3.20537 27.3968 -9.93686 
-2.44069 22.8307 -10.8186 
-1.67602 18.2645 -11.7004 
-0.911342 13.6984 -12.5822 
-0.146668 9.13227 -13.4639 
0.618007 4.56614 -14.3457 
1.38268 0 -15.2274 
-7.86928 54.7618 -4.54672 
-7.11466 50.1983 -5.41336 
-6.36003 45.6349 -6.28 
-5.60541 41.0714 -7.14664 
-4.85079 36.5079 -8.01328 
-4.09616 31.9444 -8.87992 
-3.34154 27.3809 -9.74656 
-2.58691 22.8174 -10.6132 
-1.83229 18.2539 -11.4798 
-1.07767 13.6905 -12.3465 
-0.323043 9.12697 -13.2131 
0.43158 4.56349 -14.0798 
1.1862 0 -14.9464 
-6.60734 55.0949 -5.17756 
-5.87945 50.5036 -6.0429 
-5.15155 45.9124 -6.90825 
-4.42366 41.3212 -7.77359 
-3.69577 36.7299 -8.63893 
-2.96787 32.1387 -9.50428 
-2.23998 27.5474 -10.3696 
-1.51209 22.9562 -11.235 
-0.784196 18.365 -12.1003 
-0.056303 13.7737 -12.9657 
0.67159 9.18248 -13.831 
1.39948 4.59124 -14.6963 
2.12738 0 -15.5617 
-2.34385 57.0123 -14.4681 
-2.02423 52.2612 -15.0646 
-1.70462 47.5102 -15.6611 
-1.385 42.7592 -16.2576 
-1.06539 38.0082 -16.8541 
-0.745777 33.2571 -17.4506 
-0.426163 28.5061 -18.0471 
-0.10655 23.7551 -18.6436 
0.213064 19.0041 -19.2401 
0.532678 14.2531 -19.8366 
0.852292 9.50204 -20.4331 
1.17191 4.75102 -21.0296 
1.49152 0 -21.6261 
-9.00181 58.9733 -32.6511 
-9.2669 54.4369 -33.509 
-9.53198 49.9005 -34.3669 
-9.79707 45.3641 -35.2248 
-10.0622 40.8277 -36.0827 
-10.3272 36.2913 -36.9406 
-10.5923 31.7549 -37.7985 
-10.8574 27.2185 -38.6564 
-11.1225 22.682 -39.5143 
-11.3876 18.1456 -40.3722 
-11.6527 13.6092 -41.2301 
-11.9178 9.07282 -42.088 
-12.1829 4.53641 -42.9459 
-12.4479 0 -43.8038 
-6.46421 58.5266 -30.5843 
-6.56529 53.6494 -31.3007 
-6.66637 48.7722 -32.0171 
-6.76745 43.8949 -32.7334 
-6.86852 39.0177 -33.4498 
-6.9696 34.1405 -34.1662 
-7.07068 29.2633 -34.8826 
-7.17176 24.3861 -35.5989 
-7.27284 19.5089 -36.3153 
-7.37391 14.6316 -37.0317 
-7.47499 9.75443 -37.7481 
-7.57607 4.87722 -38.4644 
-7.67715 0 -39.1808 
-7.11291 58.6321 -31.1512 
-7.2417 53.746 -31.9113 
-7.3705 48.86 -32.6714 
-7.4993 43.974 -33.4314 
-7.62809 39.088 -34.1915 
-7.75689 34.202 -34.9515 
-7.88569 29.316 -35.7116 
-8.01448 24.43 -36.4717 
-8.14328 19.544 -37.2317 
-8.27208 14.658 -37.9918 
-8.40087 9.77201 -38.7518 
-8.52967 4.886 -39.5119 
-8.65847 0 -40.272 
-3.98443 56.4469 -11.4682 
-3.65199 51.743 -12.0891 
-3.31955 47.0391 -12.7099 
-2.98711 42.3352 -13.3307 
-2.65466 37.6313 -13.9516 
-2.32222 32.9274 -14.5724 
-1.98978 28.2235 -15.1932 
-1.65734 23.5196 -15.8141 
-1.3249 18.8156 -16.4349 
-0.992454 14.1117 -17.0557 
-0.660012 9.40782 -17.6766 
-0.32757 4.70391 -18.2974 
0.00487206 0 -18.9182 
-3.76822 56.5459 -12.0468 
-3.47885 51.8337 -12.7113 
-3.18948 47.1216 -13.3759 
-2.9001 42.4094 -14.0405 
-2.61073 37.6972 -14.7051 
-2.32136 32.9851 -15.3697 
-2.03198 28.2729 -16.0342 
-1.74261 23.5608 -16.6988 
-1.45324 18.8486 -17.3634 
-1.16387 14.1365 -18.028 
-0.874493 9.42431 -18.6925 
-0.58512 4.71216 -19.3571 
-0.295747 0 -20.0217 
-3.2055 56.5022 -11.4702 
-2.83995 51.7937 -12.0851 
-2.4744 47.0852 -12.7001 
-2.10884 42.3767 -13.315 
-1.74329 37.6682 -13.9299 
-1.37774 32.9596 -14.5448 
-1.01219 28.2511 -15.1597 
-0.646642 23.5426 -15.7747 
-0.281091 18.8341 -16.3896 
0.0844595 14.1256 -17.0045 
0.45001 9.41704 -17.6194 
0.815561 4.70852 -18.2344 
1.18111 0 -18.8493 
-11.1914 53.127 -0.417422 
-10.0705 48.6998 -1.60454 
-8.94969 44.2725 -2.79166 
-7.82885 39.8453 -3.97878 
-6.70802 35.418 -5.16589 
-5.58718 30.9908 -6.35301 
-4.46634 26.5635 -7.54013 
-3.34551 22.1363 -8.72725 
-2.22467 17.709 -9.91437 
-1.10383 13.2818 -11.1015 
0.0170066 8.85451 -12.2886 
1.13784 4.42725 -13.4757 
2.25868 0 -14.6628 
-11.6249 52.8666 0.138139 
-10.4629 48.461 -0.973368 
-9.30096 44.0555 -2.08488 
-8.13897 39.6499 -3.19638 
-6.97698 35.2444 -4.30789 
-5.81499 30.8388 -5.4194 
-4.65301 26.4333 -6.5309 
-3.49102 22.0277 -7.64241 
-2.32903 17.6222 -8.75392 
-1.16704 13.2166 -9.86542 
-0.00504963 8.8111 -10.9769 
1.15694 4.40555 -12.0884 
2.31893 0 -13.1999 
41.1222 48.0995 3.63524 
39.9328 43.7268 4.81493 
38.7435 39.3541 5.99462 
37.5541 34.9815 7.1743 
36.3648 30.6088 8.35399 
35.1754 26.2361 9.53368 
33.9861 21.8634 10.7134 
32.7967 17.4907 11.893 
31.6074 13.118 13.0727 
30.418 8.74537 14.2524 
29.2287 4.37268 15.4321 
28.0393 0 16.6118 
41.2772 48.1075 3.7967 
40.1053 43.7341 5.01129 
38.9335 39.3607 6.22588 
37.7616 34.9873 7.44048 
36.5897 30.6139 8.65507 
35.4178 26.2405 9.86966 
34.2459 21.8671 11.0843 
33.0741 17.4936 12.2988 
31.9022 13.1202 13.5134 
30.7303 8.74682 14.728 
29.5584 4.37341 15.9426 
28.3866 0 17.1572 
-3.04143 57.6518 -20.4597 
-2.91409 52.8475 -20.7558 
-2.78675 48.0432 -21.052 
-2.65941 43.2389 -21.3482 
-2.53207 38.4346 -21.6443 
-2.40473 33.6302 -21.9405 
-2.27739 28.8259 -22.2366 
-2.15004 24.0216 -22.5328 
-2.0227 19.2173 -22.829 
-1.89536 14.413 -23.1251 
-1.76802 9.60864 -23.4213 
-1.64068 4.80432 -23.7174 
-1.51334 0 -24.0136 
-2.42854 57.6084 -19.5079 
-2.24914 52.8077 -19.9233 
-2.06975 48.007 -20.3386 
-1.89035 43.2063 -20.754 
-1.71096 38.4056 -21.1693 
-1.53156 33.6049 -21.5847 
-1.35217 28.8042 -22.0001 
-1.17277 24.0035 -22.4154 
-0.993379 19.2028 -22.8308 
-0.813984 14.4021 -23.2461 
-0.634588 9.60139 -23.6615 
-0.455193 4.8007 -24.0769 
-0.275798 0 -24.4922 
-4.5849 58.0287 -26.3619 
-4.45919 53.1929 -26.8316 
-4.33348 48.3572 -27.3013 
-4.20776 43.5215 -27.7709 
-4.08205 38.6858 -28.2406 
-3.95634 33.8501 -28.7103 
-3.83063 29.0143 -29.18 
-3.70491 24.1786 -29.6496 
-3.5792 19.3429 -30.1193 
-3.45349 14.5072 -30.589 
-3.32778 9.67144 -31.0586 
-3.20206 4.83572 -31.5283 
-3.07635 0 -31.998 
-4.70896 58.0189 -26.3023 
-4.56879 53.184 -26.7834 
-4.42863 48.349 -27.2646 
-4.28846 43.5141 -27.7457 
-4.1483 38.6792 -28.2269 
-4.00813 33.8443 -28.708 
-3.86797 29.0094 -29.1892 
-3.7278 24.1745 -29.6703 
-3.58764 19.3396 -30.1515 
-3.44747 14.5047 -30.6326 
-3.30731 9.66981 -31.1138 
-3.16714 4.8349 -31.595 
-3.02698 0 -32.0761 
-4.60023 58.0391 -26.4761 
-4.49413 53.2025 -26.955 
-4.38802 48.3659 -27.4339 
-4.28192 43.5293 -27.9128 
-4.17581 38.6928 -28.3917 
-4.06971 33.8562 -28.8706 
-3.9636 29.0196 -29.3495 
-3.8575 24.183 -29.8284 
-3.75139 19.3464 -30.3073 
-3.64529 14.5098 -30.7861 
-3.53919 9.67319 -31.265 
-3.43308 4.83659 -31.7439 
-3.32698 0 -32.2228 
-5.46734 58.1395 -27.6165 
-5.37152 53.2945 -28.1565 
-5.27569 48.4496 -28.6965 
-5.17987 43.6046 -29.2364 
-5.08404 38.7597 -29.7764 
-4.98822 33.9147 -30.3164 
-4.89239 29.0697 -30.8564 
-4.79657 24.2248 -31.3963 
-4.70074 19.3798 -31.9363 
-4.60492 14.5349 -32.4763 
-4.50909 9.68992 -33.0163 
-4.41327 4.84496 -33.5562 
-4.31744 0 -34.0962 
-4.78116 58.032 -26.448 
-4.66879 53.196 -26.9523 
-4.55641 48.36 -27.4566 
-4.44404 43.524 -27.9609 
-4.33167 38.688 -28.4652 
-4.2193 33.852 -28.9695 
-4.10693 29.016 -29.4738 
-3.99456 24.18 -29.9781 
-3.88219 19.344 -30.4824 
-3.76982 14.508 -30.9867 
-3.65745 9.672 -31.491 
-3.54508 4.836 -31.9953 
-3.43271 0 -32.4996 
-5.30043 58.1531 -27.7086 
-5.20983 53.307 -28.2382 
-5.11923 48.4609 -28.7678 
-5.02863 43.6148 -29.2974 
-4.93803 38.7687 -29.827 
-4.84743 33.9226 -30.3566 
-4.75683 29.0765 -30.8862 
-4.66623 24.2304 -31.4158 
-4.57563 19.3844 -31.9454 
-4.48503 14.5383 -32.475 
-4.39443 9.69218 -33.0046 
-4.30384 4.84609 -33.5342 
-4.21324 0 -34.0638 
-7.02057 55.1301 -5.70513 
-6.31007 50.5359 -6.5687 
-5.59957 45.9418 -7.43226 
-4.88907 41.3476 -8.29582 
-4.17856 36.7534 -9.15938 
-3.46806 32.1592 -10.0229 
-2.75756 27.5651 -10.8865 
-2.04706 22.9709 -11.7501 
-1.33656 18.3767 -12.6136 
-0.626059 13.7825 -13.4772 
0.0844416 9.18835 -14.3407 
0.794943 4.59418 -15.2043 
1.50544 0 -16.0679 
-8.76415 54.3844 -3.32268 
-7.93976 49.8523 -4.24523 
-7.11537 45.3203 -5.16778 
-6.29098 40.7883 -6.09033 
-5.46658 36.2562 -7.01288 
-4.64219 31.7242 -7.93543 
-3.8178 27.1922 -8.85798 
-2.99341 22.6602 -9.78053 
-2.16902 18.1281 -10.7031 
-1.34463 13.5961 -11.6256 
-0.52024 9.06406 -12.5482 
0.304151 4.53203 -13.4707 
1.12854 0 -14.3933 
-3.0172 57.8334 -23.5982 
-2.85846 53.0139 -23.9527 
-2.69971 48.1945 -24.3071 
-2.54097 43.375 -24.6616 
-2.38223 38.5556 -25.0161 
-2.22349 33.7361 -25.3706 
-2.06474 28.9167 -25.725 
-1.906 24.0972 -26.0795 
-1.74726 19.2778 -26.434 
-1.58852 14.4583 -26.7884 
-1.42978 9.63889 -27.1429 
-1.27103 4.81945 -27.4974 
-1.11229 0 -27.8518 
-3.26521 57.8468 -23.835 
-3.10976 53.0263 -24.2252 
-2.9543 48.2057 -24.6154 
-2.79885 43.3851 -25.0056 
-2.64339 38.5646 -25.3958 
-2.48794 33.744 -25.7861 
-2.33248 28.9234 -26.1763 
-2.17703 24.1028 -26.5665 
-2.02157 19.2823 -26.9567 
-1.86611 14.4617 -27.347 
-1.71066 9.64114 -27.7372 
-1.5552 4.82057 -28.1274 
-1.39975 0 -28.5176 
-6.54009 58.3328 -29.1865 
-6.60009 53.4717 -29.8777 
-6.66008 48.6107 -30.5689 
-6.72008 43.7496 -31.26 
-6.78007 38.8885 -31.9512 
-6.84007 34.0275 -32.6424 
-6.90006 29.1664 -33.3336 
-6.96006 24.3053 -34.0247 
-7.02005 19.4443 -34.7159 
-7.08005 14.5832 -35.4071 
-7.14004 9.72214 -36.0982 
-7.20003 4.86107 -36.7894 
-7.26003 0 -37.4806 
-7.26666 58.4766 -30.1435 
-7.3612 53.6036 -30.868 
-7.45573 48.7305 -31.5926 
-7.55027 43.8575 -32.3171 
-7.64481 38.9844 -33.0416 
-7.73934 34.1114 -33.7661 
-7.83388 29.2383 -34.4906 
-7.92841 24.3653 -35.2152 
-8.02295 19.4922 -35.9397 
-8.11749 14.6192 -36.6642 
-8.21202 9.7461 -37.3887 
-8.30656 4.87305 -38.1132 
-8.40109 0 -38.8378 
-6.32253 58.3362 -29.2333 
-6.36986 53.4749 -29.9007 
-6.41719 48.6135 -30.5681 
-6.46452 43.7522 -31.2355 
-6.51185 38.8908 -31.903 
-6.55919 34.0295 -32.5704 
-6.60652 29.1681 -33.2378 
-6.65385 24.3068 -33.9052 
-6.70118 19.4454 -34.5727 
-6.74851 14.5841 -35.2401 
-6.79584 9.7227 -35.9075 
-6.84317 4.86135 -36.575 
-6.89051 0 -37.2424 
-1.8266 57.0239 -14.2968 
-1.52369 52.2719 -14.9258 
-1.22079 47.5199 -15.5548 
-0.917878 42.7679 -16.1837 
-0.614971 38.0159 -16.8127 
-0.312064 33.2639 -17.4416 
-0.0091572 28.512 -18.0706 
0.29375 23.76 -18.6995 
0.596657 19.008 -19.3285 
0.899564 14.256 -19.9574 
1.20247 9.50399 -20.5864 
1.50538 4.75199 -21.2153 
1.80828 0 -21.8443 
-3.61643 57.8173 -23.6583 
-3.43157 52.9992 -24.0752 
-3.2467 48.1811 -24.4922 
-3.06183 43.363 -24.9091 
-2.87697 38.5449 -25.326 
-2.6921 33.7267 -25.7429 
-2.50723 28.9086 -26.1599 
-2.32237 24.0905 -26.5768 
-2.1375 19.2724 -26.9937 
-1.95263 14.4543 -27.4106 
-1.76777 9.63621 -27.8276 
-1.5829 4.81811 -28.2445 
-1.39803 0 -28.6614 
-3.4656 57.779 -23.1388 
-3.23683 52.9641 -23.4851 
-3.00806 48.1492 -23.8313 
-2.77929 43.3343 -24.1776 
-2.55052 38.5194 -24.5238 
-2.32175 33.7044 -24.87 
-2.09298 28.8895 -25.2163 
-1.86421 24.0746 -25.5625 
-1.63544 19.2597 -25.9088 
-1.40667 14.4448 -26.255 
-1.1779 9.62984 -26.6013 
-0.949131 4.81492 -26.9475 
-0.720361 0 -27.2937 
-3.13624 56.3842 -10.4403 
-2.74033 51.6855 -11.0184 
-2.34442 46.9868 -11.5965 
-1.94851 42.2881 -12.1747 
-1.55259 37.5895 -12.7528 
-1.15668 32.8908 -13.3309 
-0.760771 28.1921 -13.909 
-0.364859 23.4934 -14.4871 
0.0310536 18.7947 -15.0653 
0.426966 14.096 -15.6434 
0.822878 9.39737 -16.2215 
1.21879 4.69868 -16.7996 
1.6147 0 -17.3777 
-4.80601 56.1304 -9.52856 
-4.42431 51.4528 -10.1336 
-4.04262 46.7753 -10.7386 
-3.66093 42.0978 -11.3437 
-3.27923 37.4202 -11.9487 
-2.89754 32.7427 -12.5537 
-2.51584 28.0652 -13.1587 
-2.13415 23.3877 -13.7638 
-1.75245 18.7101 -14.3688 
-1.37076 14.0326 -14.9738 
-0.989064 9.35506 -15.5789 
-0.607369 4.67753 -16.1839 
-0.225675 0 -16.7889 
-4.74114 56.1301 -9.48078 
-4.32169 51.4526 -10.1212 
-3.90223 46.7751 -10.7617 
-3.48278 42.0976 -11.4021 
-3.06332 37.4201 -12.0425 
-2.64387 32.7426 -12.683 
-2.22441 28.065 -13.3234 
-1.80496 23.3875 -13.9638 
-1.38551 18.71 -14.6043 
