-9.0709,87.703,0.423742,0.927165,0.374654,0
25.0783,28.781,25.6313,0.999407,-0.0344365,0
-20.5964,75.7528,19.4141,0.923689,0.383144,0
33.4834,37.7981,28.3244,0.999373,0.035396,0
8.23453,67.663,20.2667,0.945081,0.326837,0
11.1375,47.3611,16.4696,0.983808,0.179228,0
25.2748,5.82658,24.029,0.990301,-0.13894,0
-32.9932,75.7564,19.5254,0.838517,0.544876,0
17.1972,68.7071,29.284,0.958937,0.28362,0
7.79705,73.6673,21.0945,0.925803,0.378005,0
27.1351,124.576,0.643636,0.657565,-0.753398,0
-39.8995,22.2204,3.43857,0.977602,-0.210461,0
-34.5135,119.296,28.6498,0.584715,-0.811239,0
-27.9211,65.5053,1.44475,0.89196,0.452114,0
11.574,69.4392,1.34566,0.944175,0.329445,0
2.6518,73.9339,25.8207,0.914594,0.404372,0
17.8089,0.495991,2.99885,0.983156,-0.18277,0
-27.9471,83.9928,19.9684,0.950236,0.311531,0
-23.9656,3.68727,17.2107,0.979509,-0.201402,0
-1.03398,127.697,23.6987,0.259908,-0.965633,0
-15.7066,2.31435,28.2244,0.980342,-0.197305,0
-12.9584,12.3303,11.2539,0.979242,-0.202696,0
4.2168,64.2801,24.5358,0.955028,0.296517,0
13.5908,30.8301,10.728,0.999762,-0.0218098,0
-41.1214,7.45434,20.1411,0.979202,-0.202886,0
-4.70062,50.1749,5.99408,0.980571,0.196164,0
36.0228,57.0383,22.5846,0.992137,0.125153,0
34.5115,107.966,15.9641,0.713755,-0.700395,0
18.9171,7.56038,10.0466,0.985593,-0.169136,0
-26.3148,123.607,16.9692,0.416051,-0.909341,0
26.8631,106.04,28.8054,0.696922,-0.717147,0
44.9595,33.4677,8.07173,0.999957,0.00924279,0
4.17936,44.7705,9.26056,0.98199,0.188931,0
-21.0116,117.892,2.48859,0.48322,-0.875499,0
-12.1158,92.9453,29.5595,0.995916,0.0902841,0
-0.263095,113.826,23.6238,0.636758,-0.771064,0
36.5699,29.5654,14.0018,0.999915,-0.0130003,0
-28.0486,88.6873,18.285,0.986557,0.163415,0
19.4192,14.341,28.1759,0.989305,-0.14586,0
21.3339,121.401,29.3158,0.622076,-0.782957,0
-25.7952,79.9759,0.663685,0.93291,0.36011,0
31.3188,9.31918,24.8055,0.993764,-0.111505,0
12.7613,107.746,28.6996,0.647478,-0.762084,0
6.27994,68.0646,2.553,0.942776,0.333427,0
-34.8974,71.7097,4.81744,0.808243,0.588848,0
-17.4861,102.625,18.4319,0.958346,-0.285608,0
18.3121,70.8134,28.698,0.957759,0.287572,0
-36.8358,22.863,22.8005,0.979225,-0.202775,0
-24.6834,91.2097,18.0463,0.997674,0.0681629,0
18.2861,71.4922,26.392,0.956766,0.29086,0
-38.5524,103.981,8.46971,0.953922,-0.300055,0
-2.34462,109.79,2.4045,0.723573,-0.690248,0
34.4544,24.4673,27.8762,0.999316,-0.0369908,0
16.1668,57.0275,20.851,0.976852,0.213918,0
-42.1726,103.074,3.41854,0.977463,-0.211108,0
-26.8935,98.9457,6.70714,0.98665,-0.162854,0
-7.16125,19.5668,6.68656,0.978859,-0.204536,0
-23.8329,73.0155,22.9328,0.903526,0.428534,0
41.5833,38.5962,5.03455,0.999394,0.0348112,0
19.8889,118.743,1.50402,0.627899,-0.778295,0
25.2611,105.731,27.9173,0.690767,-0.723077,0
-21.0666,77.7762,7.56018,0.927598,0.373579,0
-9.19288,74.2361,2.12309,0.914985,0.403489,0
34.3355,107.217,26.4175,0.71419,-0.699952,0
-17.174,-1.05164,16.0659,0.979717,-0.200387,0
-25.8432,124.075,1.11751,0.401859,-0.915702,0
-19.0298,126.008,3.72716,0.29559,-0.955315,0
-40.0371,112.104,0.662504,0.773563,-0.633719,0
-13.4837,63.0719,1.71986,0.984498,0.175393,0
-39.2606,85.7129,1.30571,0.957291,0.289127,0
-41.1962,3.26258,6.13591,0.978022,-0.208503,0
0.338386,53.9342,23.6963,0.978957,0.204065,0
-32.4468,120.3,0.988254,0.515691,-0.856774,0
10.8828,121.17,7.74286,0.546284,-0.8376,0
-0.673498,20.1988,14.9883,0.980244,-0.197793,0
-44.8332,96.5199,0.59452,0.997998,-0.0632517,0
25.9028,65.2892,21.1825,0.976637,0.214897,0
9.21474,-0.800059,2.75072,0.980199,-0.198015,0
7.70007,77.3948,16.5559,0.914316,0.405002,0
38.6784,112.686,7.71187,0.712707,-0.701462,0
30.7168,105.01,25.4496,0.708214,-0.705998,0
19.6066,128.122,5.90797,0.604606,-0.796525,0
15.2375,110.685,28.5118,0.642152,-0.766577,0
-38.233,103.856,2.65935,0.955827,-0.293929,0
4.48276,59.2138,29.2793,0.969223,0.246184,0
-13.8263,100.313,21.7035,0.964975,-0.262341,0
-15.5314,125.462,17.9966,0.261768,-0.965131,0
32.5777,11.3216,28.4346,0.994899,-0.100872,0
9.35955,3.49919,6.37727,0.980659,-0.195724,0
-34.3052,23.0154,1.36725,0.977684,-0.210079,0
-7.6087,126.911,29.4326,0.184413,-0.982849,0
-13.1767,11.2493,17.8095,0.979784,-0.200058,0
-35.6185,109.918,17.239,0.843188,-0.537618,0
-11.6096,18.6897,14.4929,0.979504,-0.201426,0
8.21979,116.771,13.1565,0.579857,-0.814718,0
-35.6637,23.8476,13.3114,0.978445,-0.206506,0
11.6366,1.68434,0.544716,0.980797,-0.195032,0
-12.3624,-1.37804,3.82433,0.978991,-0.203904,0
-23.2262,89.7666,6.00935,0.990154,0.139984,0
-19.9113,60.4918,12.4519,0.975332,0.220742,0
31.075,5.97601,28.163,0.992949,-0.118542,0
-34.8213,18.1462,15.4797,0.978711,-0.205245,0
9.2885,118.988,11.4353,0.557742,-0.830014,0
-41.9622,98.7694,11.6253,0.993735,-0.111761,0
11.8778,71.5297,0.729246,0.939927,0.341374,0
11.0548,115.553,4.202,0.601986,-0.798507,0
5.81528,78.554,28.2383,0.905434,0.424488,0
19.5712,116.282,0.741501,0.635598,-0.772021,0
3.31732,46.6491,19.7048,0.982225,0.187706,0
-5.15422,105.284,27.1218,0.802467,-0.596697,0
-5.1932,110.059,1.36651,0.754298,-0.656532,0
-4.77619,84.6526,24.7576,0.889511,0.456914,0
0.0830255,47.4706,14.2681,0.980893,0.194548,0
31.651,118.156,10.0594,0.691748,-0.722139,0
36.0171,36.8441,18.0515,0.99961,0.0279243,0
-8.64402,11.4777,0.622677,0.978753,-0.205044,0
-19.6207,16.5186,3.97755,0.978563,-0.205947,0
30.1118,126.636,16.0355,0.674526,-0.738251,0
40.4622,25.7174,22.7784,0.999659,-0.026114,0
28.7912,108.856,3.83986,0.697739,-0.716352,0
-14.4649,122.687,2.63047,0.308767,-0.951138,0
-18.4478,7.74344,2.14922,0.978774,-0.204942,0
23.7503,43.4765,11.0621,0.99498,0.100078,0
11.8318,13.8661,2.45137,0.981771,-0.190067,0
0.981128,8.65085,25.5339,0.981092,-0.19354,0
18.4302,123.46,2.81867,0.599475,-0.800393,0
11.7233,15.6436,18.3823,0.984726,-0.174113,0
0.901378,53.4857,14.5666,0.977434,0.211242,0
-2.21068,12.8264,4.15189,0.978923,-0.204229,0
-14.4394,19.6141,0.682903,0.978578,-0.205878,0
35.7548,11.2854,6.19667,0.994141,-0.108089,0
9.70496,40.4553,28.7552,0.990348,0.138601,0
-13.5481,61.9632,3.74009,0.98662,0.163035,0
-31.9712,104.301,2.23882,0.929235,-0.369488,0
16.8412,20.964,0.735642,0.988439,-0.151622,0
-8.99304,65.4596,24.468,0.963996,0.265919,0
-8.29135,19.5624,1.75073,0.9786,-0.20577,0
-15.4373,-0.197481,18.3704,0.979931,-0.199335,0
-5.24115,121.424,24.2464,0.365339,-0.930875,0
3.32337,48.7646,3.64324,0.980711,0.195462,0
-28.7624,90.1889,12.6561,0.99296,0.118448,0
-38.8099,19.6166,7.32063,0.977927,-0.208949,0
31.0312,112.024,1.91777,0.700163,-0.713983,0
-44.9407,100.334,5.82779,0.991304,-0.131592,0
-21.4904,20.575,29.6127,0.980008,-0.198959,0
3.22239,20.9522,0.634913,0.977812,-0.209483,0
28.5396,115.437,29.194,0.683184,-0.730246,0
6.56208,43.7978,23.5151,0.985616,0.168999,0
35.541,57.7905,26.6815,0.991515,0.129991,0
-6.14265,8.81604,22.875,0.980404,-0.197,0
-41.2648,98.9914,0.624241,0.993305,-0.115525,0
-40.5861,99.1142,15.2253,0.992033,-0.125976,0
-34.3179,118.684,27.0948,0.587799,-0.809007,0
24.6226,41.5761,0.72982,0.996664,0.0816149,0
-22.8035,69.2766,0.746038,0.923495,0.383609,0
31.0759,46.9048,5.39959,0.995608,0.0936172,0
15.378,114.933,19.5115,0.621115,-0.783719,0
11.8873,35.8196,3.41762,0.997207,0.0746937,0
-25.4465,116.712,25.464,0.567191,-0.823586,0
33.5449,122.164,22.2265,0.69014,-0.723676,0
22.5458,5.52423,21.4775,0.98885,-0.148918,0
-24.9424,106.581,27.8342,0.896893,-0.442247,0
0.173612,8.69425,3.86517,0.979234,-0.202732,0
3.13147,46.5139,18.4121,0.98201,0.18883,0
-20.3879,0.735617,23.2607,0.980126,-0.198377,0
-3.04461,126.584,1.10009,0.223322,-0.974745,0
-42.7665,104.051,7.51311,0.969466,-0.245225,0
11.6975,38.1331,29.4751,0.994817,0.101684,0
38.2467,28.6689,26.3033,0.999936,-0.0113049,0
25.5547,15.0833,4.83886,0.991546,-0.129754,0
-1.64033,-0.910676,3.23461,0.979069,-0.203528,0
15.8283,47.5827,18.2794,0.98725,0.159178,0
-19.8601,89.35,26.0919,0.987419,0.158126,0
-34.589,109.962,4.14172,0.796054,-0.605225,0
30.8335,53.7924,11.2443,0.991225,0.132183,0
-40.8828,77.969,11.6115,0.858675,0.512521,0
-7.7433,62.8653,6.15069,0.967796,0.251735,0
9.97461,66.6527,1.31344,0.949277,0.31444,0
-2.14111,16.3056,7.74354,0.979148,-0.203151,0
-5.51946,105.69,29.3171,0.801575,-0.597895,0
12.7971,0.530757,17.4774,0.983276,-0.182122,0
-8.22033,0.856764,0.953694,0.978945,-0.204124,0
-22.4742,117.208,17.8325,0.53614,-0.844129,0
36.1012,109.436,16.2639,0.714995,-0.699129,0
-18.6564,61.3952,23.9072,0.989779,0.14261,0
12.1786,74.2406,18.6949,0.93673,0.350052,0
-7.58826,-1.73061,15.0289,0.979847,-0.199748,0
37.5926,24.2563,9.06366,0.99919,-0.0402393,0
-45.2041,94.9547,6.35471,0.999782,-0.020901,0
-32.9647,69.2217,4.48822,0.816784,0.576944,0
-13.5703,1.61043,23.2348,0.980263,-0.197696,0
-0.799403,106.353,13.653,0.741164,-0.671324,0
28.3912,39.1308,14.5726,0.998678,0.0514067,0
35.7635,9.82807,28.2804,0.995324,-0.0965976,0
-26.676,0.816754,1.29248,0.978566,-0.205933,0
36.6918,126.133,11.7795,0.69879,-0.715327,0
-34.5873,18.767,5.84102,0.977933,-0.208919,0
-15.7324,92.5499,9.37187,0.997172,0.0751485,0
-21.4032,103.678,3.03212,0.940704,-0.339228,0
-31.1189,114.252,4.64427,0.646674,-0.762766,0
-6.0424,-1.04749,24.1214,0.980551,-0.196267,0
5.96263,43.0905,0.717564,0.98488,0.173238,0
5.10659,118.333,4.60696,0.54183,-0.840488,0
-19.1446,118.502,27.8013,0.501085,-0.865398,0
32.8182,13.287,5.74583,0.99386,-0.110644,0
18.652,47.6085,9.81087,0.989579,0.143992,0
-19.3438,16.0826,24.0142,0.979954,-0.199222,0
32.8033,46.7959,9.4759,0.995942,0.0899954,0
-17.0632,60.4629,24.4563,0.993174,0.116638,0
12.0477,0.633076,24.1254,0.983463,-0.181108,0
-25.8049,106.985,17.2999,0.890855,-0.454288,0
17.7757,61.3857,3.56542,0.971091,0.238709,0
-19.02,125.042,11.6349,0.308019,-0.95138,0
1.69779,45.8228,2.09397,0.981631,0.190788,0
16.6431,122.728,17.9784,0.580854,-0.814008,0
-33.8068,5.66672,3.28666,0.978141,-0.207942,0
-3.74015,68.4007,18.646,0.938781,0.344513,0
18.8548,29.2058,25.3072,0.998945,-0.0459315,0
40.7845,46.82,28.4211,0.997687,0.0679757,0
-16.3235,91.1244,9.1728,0.992423,0.122866,0
-42.1803,80.2129,28.449,0.895753,0.444552,0
-36.2188,80.9348,7.00058,0.885359,0.464907,0
21.6672,60.2661,27.9204,0.978521,0.206146,0
-11.9058,105.906,28.5431,0.877402,-0.479756,0
-38.5302,79.9818,5.65787,0.864863,0.502008,0
24.3626,6.00986,1.41329,0.986663,-0.162774,0
8.14461,125.209,27.6677,0.464019,-0.885825,0
-32.1432,16.6881,20.9707,0.979307,-0.202381,0
29.9785,110.52,3.83752,0.698872,-0.715247,0
43.5139,26.3719,21.1407,0.999791,-0.0204353,0
-1.64744,80.5852,1.54735,0.867886,0.496764,0
-9.83528,58.919,19.2706,0.980744,0.195297,0
16.1097,18.6887,2.61973,0.986285,-0.165051,0
-12.8197,7.46548,3.63486,0.97887,-0.204482,0
-42.7588,102.899,17.1732,0.976264,-0.216583,0
-25.9591,111,2.4138,0.765802,-0.643077,0
35.6888,52.7038,14.1706,0.994078,0.108665,0
15.3963,126.415,24.3122,0.558094,-0.829778,0
16.1527,18.0494,7.31031,0.986588,-0.163231,0
-34.7132,82.3532,24.8104,0.911556,0.411175,0
42.4791,34.4607,22.2236,0.99986,0.0167551,0
26.4739,121.081,3.37466,0.663406,-0.74826,0
-12.9914,91.2757,2.08099,0.985971,0.166918,0
26.3373,65.9763,16.5764,0.977513,0.210874,0
-15.6284,93.2791,29.2313,0.999307,0.0372332,0
-12.1679,90.8987,28.3502,0.983575,0.180498,0
-44.4062,92.7534,1.72868,0.999758,0.0220067,0
-1.2243,108.273,18.9208,0.736272,-0.676686,0
35.0012,125.746,10.1561,0.694444,-0.719547,0
-32.1285,82.6793,0.643842,0.931851,0.362841,0
-44.3274,99.4076,12.188,0.993174,-0.116641,0
35.8414,33.0409,24.3037,0.999972,0.00745635,0
42.0998,39.9759,1.48386,0.999191,0.0402045,0
-16.9941,94.1784,8.62139,0.999983,0.00579349,0
27.4749,25.5024,4.04323,0.998286,-0.0585286,0
-14.953,112.929,28.4016,0.723429,-0.690399,0
-36.7716,79.9609,7.51171,0.872269,0.489026,0
-14.1845,75.1531,1.33587,0.924407,0.381407,0
36.8474,122.999,29.0541,0.69741,-0.716673,0
-26.0382,100.788,13.2095,0.974695,-0.22354,0
-12.864,120.839,16.9282,0.362518,-0.931977,0
28.6548,22.9368,19.3885,0.997894,-0.064863,0
27.947,10.506,6.23171,0.990877,-0.134768,0
-11.4097,80.695,6.17435,0.913192,0.40753,0
-31.2655,90.1972,23.619,0.991934,0.126758,0
28.2143,49.6888,5.75005,0.993007,0.118059,0
-33.9245,16.4168,0.759708,0.977833,-0.209387,0
33.9923,111.024,29.2486,0.708805,-0.705405,0
0.500681,59.4435,7.75504,0.967493,0.252898,0
-40.8598,78.1225,25.5511,0.870388,0.492367,0
36.2388,105.16,4.80906,0.716535,-0.697551,0
14.0785,43.8295,1.28464,0.989915,0.141664,0
41.6019,29.021,4.31056,0.999898,-0.0142643,0
6.13414,-1.11118,15.2904,0.981047,-0.19377,0
15.2307,25.5069,25.792,0.994604,-0.103743,0
36.9931,50.3758,0.991856,0.995908,0.0903773,0
13.8266,123.833,24.0305,0.554695,-0.832054,0
-12.405,110.214,2.22981,0.804181,-0.594384,0
25.12,124.784,0.643636,0.644627,-0.764497,0
13.1342,123.201,3.44687,0.543057,-0.839696,0
37.8956,18.8804,15.7168,0.998031,-0.0627284,0
5.01202,43.0592,9.42736,0.982874,0.184282,0
3.1136,50.4407,0.62379,0.979641,0.200756,0
-10.2261,116.415,4.66214,0.5924,-0.805644,0
10.6347,53.345,20.1355,0.979737,0.200286,0
-16.128,-1.41315,29.5679,0.980395,-0.197043,0
-11.3932,7.58594,18.9722,0.979996,-0.199017,0
14.8162,109.487,29.2401,0.645874,-0.763444,0
-25.2526,16.4381,4.51351,0.978352,-0.206949,0
-11.2553,103.903,12.4015,0.902176,-0.431368,0
40.7033,16.7455,7.67632,0.997252,-0.0740787,0
-25.0464,121.622,0.826122,0.427788,-0.903879,0
-31.9568,22.0283,0.573443,0.977769,-0.209686,0
-16.5834,20.2377,0.680321,0.978535,-0.206079,0
-3.26628,4.47029,10.7643,0.979589,-0.201009,0
-3.25685,105.924,12.0335,0.768608,-0.63972,0
-10.3352,14.8243,0.909754,0.978666,-0.205459,0
-24.8586,100.86,12.9016,0.974581,-0.224033,0
-5.25321,66.6536,0.678285,0.947606,0.31944,0
-22.0686,90.9983,27.7483,0.995549,0.0942421,0
-28.4732,119.402,1.5205,0.495965,-0.868343,0
-25.573,87.5196,11.0953,0.981391,0.192021,0
16.504,66.524,29.1966,0.961399,0.275159,0
18.2875,112.978,1.36657,0.646586,-0.762841,0
-27.4745,10.631,5.10314,0.978397,-0.206736,0
9.54422,39.2076,27.1018,0.99122,0.132223,0
32.116,6.96355,22.6542,0.993232,-0.116151,0
26.1053,7.91309,12.4681,0.989632,-0.14363,0
3.36193,124.411,13.5031,0.397435,-0.91763,0
4.84101,72.2331,0.740426,0.918048,0.396468,0
-38.7411,21.287,17.2036,0.978769,-0.204967,0
36.5005,55.4051,1.73254,0.993096,0.117303,0
-29.456,118.512,22.1122,0.526125,-0.850407,0
-17.6823,-0.769641,0.315174,0.978907,-0.204306,0
15.4865,111.57,1.47381,0.640874,-0.767646,0
33.1173,116.553,4.22039,0.700501,-0.713652,0
-27.0001,113.435,17.928,0.677711,-0.735328,0
-38.6772,76.3198,14.6691,0.831356,0.555741,0
-33.4992,99.3603,5.17274,0.984507,-0.175346,0
-16.0966,11.7411,21.5834,0.979906,-0.199459,0
11.938,55.8112,21.9915,0.976359,0.216154,0
19.1072,107.119,25.1942,0.662019,-0.749487,0
-24.2816,97.1368,18.9159,0.994411,-0.105575,0
-23.9817,114.521,16.1064,0.629092,-0.777331,0
22.7816,127.12,24.7098,0.623145,-0.782106,0
-0.972491,107.093,3.18259,0.729722,-0.683744,0
-22.8722,117.843,28.5169,0.520714,-0.853731,0
2.76057,44.5862,24.019,0.983926,0.178577,0
-17.3656,65.5524,11.1621,0.959514,0.28166,0
-5.45266,51.8565,8.25001,0.980537,0.196335,0
-29.5765,66.0514,1.9369,0.865988,0.500065,0
-17.8568,101.055,17.0257,0.971305,-0.237837,0
10.1993,22.752,0.922604,0.98144,-0.191769,0
-4.71239,79.2922,18.0815,0.887027,0.461717,0
-33.9623,95.7344,17.6834,0.998337,-0.0576556,0
-5.81943,105.094,28.8967,0.809381,-0.587283,0
-37.3296,73.259,6.01248,0.812376,0.583133,0
-39.4646,77.7087,8.2689,0.842693,0.538395,0
33.2386,59.0108,9.85563,0.989222,0.146422,0
-1.71587,82.1283,1.10201,0.865176,0.501468,0
-2.43934,79.1041,14.5204,0.884601,0.466348,0
-26.8747,77.2609,29.3848,0.897732,0.440542,0
-44.1548,103.343,1.04028,0.982807,-0.184638,0
-25.7925,2.78801,17.2784,0.979467,-0.201606,0
34.9766,104.529,23.6026,0.71769,-0.696362,0
18.2589,66.3746,16.6762,0.964476,0.264171,0
-42.511,80.9689,12.1479,0.905685,0.423951,0
-5.98708,108.358,0.655098,0.778539,-0.627596,0
-38.3198,18.0513,0.721406,0.977633,-0.210319,0
13.4366,117.713,16.9895,0.593214,-0.805045,0
-43.921,104.279,1.42821,0.976722,-0.214509,0
-8.07964,7.89451,2.51423,0.978888,-0.204397,0
-5.39703,127.937,10.2434,0.220423,-0.975404,0
25.2143,123.194,8.53897,0.6526,-0.757702,0
-12.6892,93.6463,2.85145,0.997801,0.0662817,0
-30.8242,108.719,25.4433,0.842052,-0.539397,0
23.1541,8.92539,17.1535,0.989391,-0.145276,0
37.9162,109.257,0.688257,0.716243,-0.697851,0
-17.8561,121.181,17.1046,0.382143,-0.924103,0
23.2096,31.329,5.09846,0.999949,-0.0101135,0
-25.3094,105.93,23.4907,0.909916,-0.414792,0
17.8706,71.6434,15.3753,0.954993,0.29663,0
23.9025,117.474,29.3477,0.650815,-0.759236,0
-35.7838,94.2086,1.31798,0.999971,0.00761872,0
-13.4201,99.7726,27.8799,0.969158,-0.246439,0
23.137,32.992,24.4816,0.999999,0.00148644,0
-31.6549,121.006,9.34463,0.510459,-0.859902,0
5.93919,75.5933,0.552529,0.905789,0.423728,0
38.4544,52.4869,7.46163,0.995169,0.0981813,0
28.5579,4.40626,26.04,0.991514,-0.129997,0
12.3599,107.628,24.127,0.646122,-0.763234,0
38.6284,104.913,11.3409,0.719104,-0.694902,0
26.0208,48.5497,11.8155,0.992737,0.120303,0
31.2155,20.4093,13.8014,0.997268,-0.0738685,0
-31.3225,10.7503,26.1744,0.97974,-0.200274,0
22.977,36.4107,11.0373,0.998872,0.0474796,0
-26.5211,73.3702,4.29249,0.886771,0.462208,0
-33.7761,118.786,21.2274,0.567979,-0.823043,0
-32.5283,20.1988,1.77285,0.977795,-0.209563,0
-31.3859,8.66069,19.563,0.979406,-0.201899,0
21.6328,54.096,21.5279,0.985452,0.169954,0
39.1223,43.3694,0.62788,0.998284,0.0585513,0
28.8374,105.638,28.9516,0.704236,-0.709966,0
17.5997,57.3995,8.13408,0.978415,0.206648,0
-41.2722,81.1068,29.4245,0.901503,0.432774,0
27.6984,126.767,1.39828,0.657086,-0.753816,0
-30.5223,107.479,26.0565,0.872005,-0.489497,0
15.4505,56.1954,28.1086,0.978713,0.205232,0
4.04518,107.601,13.3818,0.688692,-0.725054,0
4.97512,75.6035,29.4083,0.912143,0.409873,0
10.2999,44.4068,8.56687,0.985597,0.169112,0
-38.506,21.1942,22.5287,0.979212,-0.202841,0
-7.31388,65.1495,1.67953,0.956898,0.290424,0
12.7722,112.268,22.698,0.628442,-0.777856,0
31.6619,126.249,8.43495,0.681932,-0.731415,0
38.3085,26.132,29.3283,0.999741,-0.0227718,0
28.6957,64.2494,19.7023,0.981511,0.191404,0
-1.77398,57.4042,4.35663,0.973324,0.229434,0
8.51598,50.9478,16.267,0.979834,0.199814,0
-2.62698,55.6703,1.3796,0.976841,0.213966,0
-29.9938,73.5259,19.9627,0.841134,0.540827,0
22.8929,116.802,22.1162,0.651573,-0.758586,0
11.897,25.2908,0.895611,0.987007,-0.160676,0
20.2173,41.2605,24.9466,0.995802,0.0915309,0
39.9379,14.8943,3.85274,0.996252,-0.0864993,0
-30.2462,2.90149,4.42848,0.978437,-0.206546,0
-7.24754,52.6503,21.9219,0.984353,0.176208,0
21.1374,44.0199,6.34688,0.993684,0.112217,0
-12.5287,122.818,23.0195,0.295628,-0.955303,0
-15.2627,124.715,0.664164,0.2628,-0.96485,0
37.5674,21.465,10.5045,0.998428,-0.0560418,0
-19.5948,62.8556,1.96559,0.992404,0.123022,0
17.4942,114.089,15.4497,0.634451,-0.772963,0
-37.9463,114.52,4.59084,0.694485,-0.719507,0
12.5713,116.862,20.2401,0.591576,-0.806249,0
-9.70886,1.81316,1.70079,0.97894,-0.204149,0
4.15247,127.957,25.3714,0.356093,-0.93445,0
15.1016,121.48,3.42075,0.574411,-0.818567,0
-18.6582,20.9074,8.59111,0.978774,-0.204943,0
28.7326,123.825,10.1295,0.669946,-0.74241,0
21.8311,63.5388,1.94546,0.97373,0.227705,0
7.55111,43.6584,29.2415,0.986674,0.16271,0
32.6202,125.045,13.2593,0.684569,-0.728948,0
-36.9479,4.33741,1.11209,0.977935,-0.20891,0
23.5685,40.3757,28.709,0.997391,0.0721895,0
22.6709,44.4243,26.2454,0.994396,0.105716,0
16.3518,50.8198,4.97831,0.985176,0.171545,0
-40.8629,83.7892,2.87931,0.932057,0.362311,0
-41.7166,11.7565,11.1945,0.978315,-0.207124,0
31.3791,25.5173,0.837672,0.998872,-0.0474784,0
14.6539,9.94627,8.32151,0.983758,-0.179499,0
3.26973,128.443,5.82503,0.359553,-0.933125,0
-19.4644,86.6976,4.88014,0.975058,0.221952,0
-15.5659,56.3164,0.246499,0.997588,0.0694203,0
38.881,19.226,27.49,0.998472,-0.0552527,0
13.7914,127.379,13.0251,0.538632,-0.842541,0
0.947156,13.962,5.63784,0.979153,-0.203126,0
-32.8648,1.78586,4.23471,0.978275,-0.207313,0
-40.9785,103.457,2.00014,0.975734,-0.218957,0
-3.87445,14.4879,5.87536,0.978949,-0.204107,0
38.8567,34.0223,14.468,0.999911,0.0133669,0
5.92734,128.703,29.5097,0.374403,-0.927266,0
22.1146,59.6792,15.5952,0.97964,0.200761,0
34.2944,107.365,14.7056,0.713986,-0.70016,0
35.5839,37.6427,11.8845,0.9995,0.0316286,0
-39.5299,21.2122,0.504546,0.977569,-0.210616,0
-21.0375,2.41236,29.2508,0.980254,-0.197744,0
-41.9866,3.42781,2.76472,0.977848,-0.209316,0
-21.3281,79.2557,21.8902,0.934126,0.356943,0
28.0173,117.027,18.0099,0.678775,-0.734346,0
-10.5492,127.45,4.37931,0.199695,-0.979858,0
18.7229,69.4588,4.49396,0.959631,0.28126,0
-13.2631,112.165,12.456,0.746165,-0.665761,0
-7.37137,58.9842,24.9476,0.981626,0.190814,0
-13.7151,104.475,21.8392,0.918223,-0.396064,0
-14.651,-1.21025,21.6495,0.980192,-0.198049,0
1.89643,16.7897,13.1461,0.980453,-0.196755,0
-30.744,108.711,29.1679,0.837638,-0.546226,0
5.2454,12.7568,29.0118,0.981654,-0.190672,0
18.8644,20.7011,13.3603,0.992498,-0.12226,0
-26.7861,114.349,20.6282,0.649697,-0.760193,0
-20.2357,89.2802,7.95907,0.986228,0.16539,0
-11.0054,-1.12223,0.467005,0.97894,-0.204148,0
24.9731,42.708,0.72982,0.996014,0.0891919,0
-27.4823,82.9845,1.44697,0.949217,0.314621,0
-25.5044,92.8416,13.2618,0.999618,0.0276373,0
-41.2337,14.1821,16.1289,0.978733,-0.205138,0
-16.858,15.3014,17.2685,0.979589,-0.20101,0
31.5146,109.816,0.757058,0.704176,-0.710025,0
-28.5446,8.36114,1.15034,0.978342,-0.206997,0
-22.4854,13.3041,0.624049,0.978436,-0.206551,0
-15.6559,94.3597,28.5951,0.999914,0.0131517,0
33.7093,17.7236,0.725158,0.996055,-0.0887408,0
16.7232,123.833,23.3899,0.580109,-0.814539,0
-27.8898,115.84,16.4887,0.599484,-0.800387,0
-1.85952,5.4801,27.3609,0.980891,-0.194558,0
-20.7958,21.2048,0.42415,0.978356,-0.206927,0
-26.2115,21.241,15.1852,0.978991,-0.203905,0
38.1467,51.1375,17.185,0.995758,0.0920082,0
-27.8768,122.152,3.72624,0.451809,-0.892115,0
8.79681,113.554,27.5213,0.618419,-0.785849,0
-3.53929,128.21,21.7491,0.218026,-0.975943,0
10.7502,41.8321,29.1988,0.989418,0.145091,0
-37.1118,102.495,18.7976,0.962947,-0.269692,0
29.804,58.1458,27.5291,0.987956,0.154732,0
-20.4159,100.58,18.9685,0.977666,-0.210166,0
19.152,12.1018,14.9206,0.987936,-0.154861,0
-33.7958,101.984,10.0354,0.964507,-0.264058,0
-10.423,57.4319,5.48762,0.985058,0.172225,0
17.2111,107.431,26.5657,0.656406,-0.754407,0
-27.4048,112.188,12.6983,0.723695,-0.69012,0
-25.8891,109.703,28.4284,0.820976,-0.570962,0
-17.4582,69.1804,28.0017,0.953194,0.302359,0
3.53197,17.4308,0.481537,0.978337,-0.207021,0
-42.9252,88.1584,2.43317,0.987477,0.157762,0
21.9776,19.1374,29.3299,0.9936,-0.112954,0
16.9511,16.8368,23.2449,0.988747,-0.149598,0
0.511866,3.42922,15.2145,0.980341,-0.197311,0
-27.7675,1.27542,22.3443,0.979792,-0.200019,0
-35.961,116.871,6.15097,0.626871,-0.779123,0
-9.84047,18.8221,10.2735,0.979142,-0.20318,0
29.9344,5.7927,2.23608,0.989304,-0.145865,0
16.5147,64.7095,23.218,0.963884,0.266324,0
-42.4431,82.9707,8.3628,0.932528,0.361097,0
4.98058,17.6128,11.1213,0.980718,-0.195428,0
-4.54732,49.2948,24.0917,0.983953,0.178426,0
-45.1242,98.7471,5.13907,0.994419,-0.105501,0
-18.6596,-1.15449,0.945524,0.978897,-0.204352,0
-38.9212,16.1231,1.35995,0.977681,-0.210094,0
-7.79387,51.9739,14.4424,0.981398,0.191984,0
22.89,14.9943,29.2035,0.991998,-0.126253,0
-29.3243,5.39262,29.0365,0.979919,-0.199396,0
-5.80898,6.90305,1.57672,0.978931,-0.204192,0
14.2128,63.4499,24.8707,0.963657,0.267141,0
13.7382,115.965,5.92753,0.604065,-0.796935,0
-8.30775,59.1656,1.44629,0.979627,0.200826,0
-0.821943,4.1559,0.66731,0.979106,-0.203348,0
1.94618,74.827,23.7739,0.906526,0.422149,0
-5.43981,-1.65023,2.77325,0.978961,-0.204047,0
8.38724,122.184,18.2499,0.506575,-0.862196,0
1.18436,20.7715,0.332754,0.978047,-0.208384,0
15.1887,36.9774,15.8858,0.996336,0.0855263,0
-13.4936,-1.92574,0.437093,0.97893,-0.204197,0
-5.7188,64.8449,10.4541,0.95509,0.296317,0
-16.0594,7.22749,6.35652,0.978964,-0.204032,0
19.1381,1.51508,7.11758,0.984382,-0.176044,0
-28.5668,0.531167,23.1065,0.979819,-0.199886,0
-6.43086,8.60767,14.1429,0.979733,-0.200309,0
-6.32523,127.191,26.6472,0.186307,-0.982492,0
31.2044,105.917,12.1436,0.707011,-0.707202,0
1.11756,128.547,16.4601,0.305705,-0.952126,0
0.711893,68.9656,18.6775,0.934658,0.355547,0
-40.9541,17.4524,1.99844,0.977645,-0.210261,0
1.51514,47.3947,9.02499,0.980605,0.195995,0
-19.2254,99.1885,25.5218,0.982727,-0.185059,0
-17.4829,60.9875,10.1194,0.981664,0.190617,0
7.49241,41.6572,28.4225,0.987613,0.15691,0
18.7356,119.87,25.9746,0.612788,-0.790247,0
-1.09552,18.6005,16.4462,0.980344,-0.197294,0
-17.3464,20.8034,1.18465,0.978512,-0.20619,0
-12.9985,-1.36459,0.437093,0.978933,-0.204182,0
-4.99585,105.737,2.70495,0.783926,-0.620854,0
39.9196,35.0214,1.43011,0.999859,0.0167795,0
-7.88103,-0.465579,1.50311,0.978945,-0.204125,0
-9.74831,72.3571,13.4563,0.927691,0.373349,0
26.55,127.509,16.8502,0.653161,-0.757219,0
-2.61753,106.974,17.3353,0.761846,-0.647758,0
-32.2714,1.63221,0.979878,0.978202,-0.207657,0
30.2184,26.0459,5.19473,0.99889,-0.0471129,0
-13.4512,92.2252,23.977,0.993128,0.117036,0
-29.7746,1.40619,8.12771,0.978652,-0.205524,0
-2.64037,20.0024,9.7178,0.979436,-0.201756,0
21.3279,19.5007,9.90311,0.992707,-0.120552,0
16.091,35.7553,1.97802,0.999182,0.0404462,0
-31.2602,117.156,10.9172,0.573916,-0.818914,0
25.8348,106.396,1.31557,0.69268,-0.721245,0
-37.7197,20.8056,0.504546,0.977601,-0.210467,0
-31.8609,104.164,20.2141,0.937038,-0.349228,0
14.9017,24.7363,4.56,0.991252,-0.131979,0
-21.8711,81.0665,1.70526,0.944522,0.32845,0
-11.0042,-0.720907,3.50883,0.978981,-0.203953,0
-17.1878,-1.36289,0.90437,0.978912,-0.20428,0
-5.001,52.8098,16.2903,0.980454,0.196746,0
-36.7943,2.21001,24.5675,0.979621,-0.200854,0
29.1067,20.524,21.1887,0.997074,-0.0764391,0
-14.9207,-1.40448,0.589195,0.978926,-0.204217,0
-25.4707,69.5593,6.91238,0.898744,0.438473,0
31.1031,6.61608,28.8098,0.993132,-0.117,0
-42.1495,85.1254,6.0382,0.963786,0.266678,0
10.0415,74.1674,14.1841,0.92929,0.369351,0
-24.1242,65.2146,13.5467,0.923351,0.383958,0
22.7459,113.391,2.47896,0.667785,-0.744354,0
-30.047,109.336,24.3921,0.825654,-0.564177,0
-24.6416,105.901,16.484,0.912111,-0.409943,0
21.4183,114.069,21.0486,0.653377,-0.757033,0
-13.7818,3.80467,13.4727,0.979551,-0.201197,0
-45.1902,94.6881,9.51098,0.999791,-0.0204537,0
-8.41892,107.337,24.3624,0.822266,-0.569103,0
10.7965,107.652,2.47541,0.647401,-0.76215,0
-11.1776,65.2937,29.2774,0.971686,0.236278,0
6.31368,70.0131,8.98195,0.935007,0.354629,0
10.8268,40.9473,29.1988,0.990673,0.136264,0
-17.0846,118.278,23.3891,0.480861,-0.876797,0
-6.94338,-0.280397,2.28347,0.978963,-0.204037,0
-33.1672,1.59821,25.0619,0.979738,-0.200283,0
-13.8047,93.1658,23.6167,0.99679,0.0800634,0
-18.0842,117.176,1.64302,0.506643,-0.862156,0
37.8825,118.614,6.41271,0.706218,-0.707995,0
-8.88624,107.969,20.2096,0.826075,-0.563561,0
0.523819,52.8759,4.70386,0.977966,0.208762,0
12.4387,63.2465,26.5874,0.962203,0.272333,0
28.2358,109.084,6.05913,0.694163,-0.719818,0
-24.6883,21.7324,0.720599,0.978127,-0.208009,0
-32.2665,9.85431,17.4188,0.979171,-0.203037,0
-24.9586,70.3905,25.1864,0.895188,0.445689,0
25.2831,105.899,2.9067,0.690828,-0.723019,0
-17.0384,126.326,22.4292,0.28048,-0.95986,0
-0.104999,-0.914059,0.927428,0.979017,-0.203779,0
-19.3294,6.06286,11.0144,0.979194,-0.202924,0
-17.9177,17.0312,0.670277,0.97856,-0.20596,0
-19.994,21.0943,0.928481,0.978402,-0.206709,0
-20.2229,21.1279,1.77678,0.978411,-0.206668,0
-6.66902,56.6639,5.15039,0.979427,0.201801,0
-18.2345,-1.20092,0.315174,0.978902,-0.204329,0
36.7929,104.265,12.0961,0.718687,-0.695334,0
-11.1693,7.38123,20.1422,0.980082,-0.198594,0
5.09102,21.249,4.03851,0.978762,-0.204998,0
-20.8423,123.889,3.27212,0.337467,-0.941337,0
-30.8893,5.61678,1.58973,0.978295,-0.207218,0
-39.1564,94.3539,26.1,0.999967,-0.00812515,0
-42.0321,84.3367,4.98638,0.946003,0.324157,0
-2.79784,16.8595,5.74027,0.97888,-0.204438,0
-37.9485,113.475,4.97553,0.728511,-0.685034,0
0.0351865,121.094,4.74855,0.428639,-0.903476,0
31.4688,28.3917,16.9946,0.999733,-0.023089,0
29.6971,15.854,27.958,0.995661,-0.0930532,0
44.4286,25.2973,21.4258,0.999692,-0.0248295,0
20.7458,123.192,0.90418,0.621728,-0.783233,0
-6.49315,127.548,15.755,0.210853,-0.977518,0
-32.1767,0.903992,0.979878,0.978189,-0.207715,0
9.98012,7.93899,17.5176,0.982861,-0.18435,0
-27.8748,81.3112,11.7945,0.932808,0.360373,0
19.0647,25.34,29.2068,0.996462,-0.0840435,0
-12.9718,87.3999,0.706923,0.956374,0.292146,0
-40.9424,18.8355,0.647034,0.9776,-0.210473,0
-5.75866,4.16684,16.4214,0.98003,-0.198852,0
-35.3668,2.88191,15.704,0.979003,-0.203845,0
-38.2592,16.9529,29.268,0.979518,-0.201359,0
-36.6893,4.72789,27.9398,0.979729,-0.200329,0
24.9027,108.678,21.1651,0.68394,-0.729538,0
11.8686,47.6952,0.585823,0.985502,0.169665,0
6.65084,122.294,1.416,0.48402,-0.875057,0
-38.4918,78.0009,21.7589,0.861433,0.507871,0
-36.7427,22.8357,24.5049,0.979321,-0.202311,0
-37.7226,99.5751,28.4649,0.988642,-0.150288,0
16.8591,13.5162,9.30596,0.985881,-0.167448,0
-26.5217,64.2182,28.3199,0.915974,0.401237,0
38.0748,27.1466,24.9074,0.999795,-0.0202396,0
10.3673,127.9,14.0389,0.489767,-0.871854,0
26.843,35.3167,15.0989,0.999621,0.0275231,0
31.4014,61.8582,2.97445,0.985473,0.169832,0
10.9915,37.2422,16.8678,0.992924,0.118748,0
-29.1809,72.5913,26.0213,0.851821,0.523833,0
-17.5918,-1.09246,3.22255,0.978938,-0.204156,0
27.5495,105.617,2.68965,0.698144,-0.715957,0
34.5517,123.053,29.1943,0.690974,-0.72288,0
-12.6035,19.9362,0.575236,0.978583,-0.205852,0
-12.8881,20.6504,0.575236,0.978582,-0.205856,0
-27.2155,13.5191,0.673687,0.978239,-0.207482,0
-2.43698,-0.558127,0.841533,0.978956,-0.20407,0
43.666,29.3382,4.98016,0.999932,-0.0116607,0
-14.8755,108.939,8.19617,0.845225,-0.53441,0
-4.69402,111.735,27.8521,0.721048,-0.692885,0
-40.363,22.3202,7.14971,0.977871,-0.20921,0
0.268185,71.4347,4.72758,0.920082,0.391727,0
29.4383,119.354,0.680746,0.681687,-0.731644,0
-8.08953,57.974,19.1608,0.980079,0.198608,0
-19.2126,-1.09408,0.630349,0.978886,-0.204407,0
-15.4023,-1.58084,0.589195,0.978922,-0.204235,0
-16.0258,-1.04269,0.589195,0.978919,-0.204247,0
-25.8064,10.6907,9.53853,0.978771,-0.204957,0
-16.5788,-1.41863,0.589195,0.978916,-0.204264,0
-36.0112,4.14521,28.8446,0.979755,-0.200202,0
-35.1955,23.9972,7.35713,0.977938,-0.208895,0
-36.8439,10.4736,2.49107,0.977898,-0.209081,0
14.1442,114.381,0.651242,0.622461,-0.782651,0
-14.4163,-1.86046,1.02629,0.978931,-0.204192,0
-4.08121,105.745,12.7553,0.777428,-0.628972,0
9.37089,39.1693,23.8672,0.990681,0.136203,0
-27.4908,5.22902,27.0182,0.979983,-0.199082,0
-12.7935,72.5229,0.834706,0.928426,0.371517,0
-22.1657,20.2631,9.7485,0.978754,-0.205038,0
22.7164,123.437,26.459,0.627149,-0.7789,0
16.9511,107.75,11.7319,0.65114,-0.758957,0
-40.0125,19.8319,11.8203,0.978275,-0.207311,0
38.0544,22.7261,4.46028,0.998675,-0.0514525,0
-20.3707,21.1378,18.0784,0.979504,-0.201424,0
29.6718,55.7766,29.3998,0.989729,0.142959,0
-6.83549,17.3314,14.0303,0.979634,-0.200789,0
43.0754,22.1666,0.963808,0.998946,-0.0459082,0
8.78524,8.91251,8.36018,0.981186,-0.193065,0
-37.0978,83.8965,27.7487,0.933761,0.357897,0
-25.6831,64.0297,0.603124,0.936914,0.349559,0
-0.209179,126.82,22.9626,0.285807,-0.958287,0
-23.0076,66.8134,16.8081,0.924722,0.380642,0
-39.654,25.3981,7.52916,0.977855,-0.209283,0
15.8759,128.388,5.72394,0.556284,-0.830993,0
5.90579,43.3262,27.0325,0.985867,0.167527,0
-10.8622,20.3428,1.08164,0.97859,-0.205821,0
-11.6667,19.6833,0.575236,0.978591,-0.205812,0
16.7491,108.716,0.743388,0.652912,-0.757434,0
31.8979,18.6829,4.64028,0.996179,-0.0873404,0
-32.338,88.2798,4.80765,0.982989,0.183666,0
1.23981,9.17241,16.7263,0.98067,-0.195666,0
-0.753557,75.3856,26.2389,0.902151,0.431421,0
6.28695,17.1895,19.1657,0.982229,-0.187685,0
-5.30529,51.1713,5.03295,0.980897,0.194526,0
-23.0574,20.5992,21.2916,0.979629,-0.200816,0
18.9648,41.7816,21.187,0.995077,0.0991034,0
-39.5172,76.4925,20.3972,0.848996,0.528399,0
6.15837,53.2109,26.4433,0.97886,0.204533,0
-26.6426,63.0956,3.29065,0.934732,0.355355,0
19.3494,27.2125,29.2068,0.997914,-0.0645617,0
37.1152,15.3414,16.0297,0.996509,-0.0834913,0
-3.63112,10.8278,21.5163,0.980456,-0.196739,0
36.2656,113.066,10.4175,0.710052,-0.704149,0
26.8417,63.6064,21.2278,0.9801,0.198505,0
44.2211,32.2124,28.6295,0.999989,0.00477326,0
17.7088,48.5216,1.02066,0.988098,0.153825,0
3.812,79.2779,21.1915,0.895055,0.445956,0
44.3794,37.5034,10.0367,0.999597,0.0283768,0
-6.43226,124.263,23.9861,0.249699,-0.968324,0
-16.7575,88.7253,1.35756,0.980343,0.197299,0
14.62,43.3492,6.83429,0.990202,0.139642,0
27.666,26.808,5.18175,0.998977,-0.0452236,0
-43.7559,105.492,2.5449,0.965792,-0.259319,0
39.5437,124.026,21.7736,0.70319,-0.711002,0
30.6863,10.8539,25.7958,0.994052,-0.108902,0
-1.81125,110.976,27.5682,0.70705,-0.707163,0
-31.8618,121.384,0.547374,0.49785,-0.867263,0
-24.8601,95.7155,15.3948,0.998053,-0.0623765,0
42.8983,45.7684,3.91367,0.998101,0.0616063,0
-37.3432,116.656,0.589145,0.61661,-0.787268,0
-19.2984,13.3149,24.6093,0.979997,-0.199011,0
-30.2901,77.6661,20.2596,0.877461,0.479648,0
-40.025,113.231,21.1942,0.813651,-0.581353,0
-29.9859,101.186,6.5666,0.969247,-0.246092,0
40.7909,121.528,4.13391,0.706557,-0.707656,0
-20.2635,113.503,29.1887,0.69291,-0.721024,0
-22.6182,90.5676,2.13842,0.992136,0.125164,0
13.3409,107.561,7.54548,0.645226,-0.763992,0
32.5408,28.7198,21.8671,0.999792,-0.0204111,0
5.25168,54.6625,3.95459,0.975282,0.220965,0
34.5316,104.529,17.4312,0.715863,-0.698241,0
-5.86118,53.802,5.96472,0.980314,0.197444,0
22.8004,44.7263,1.38714,0.99403,0.109103,0
13.9001,3.77349,7.42575,0.982288,-0.187375,0
-11.5832,102.285,2.90902,0.92353,-0.383525,0
-36.6186,107.919,29.1393,0.886963,-0.461841,0
12.0874,58.985,24.679,0.970744,0.240116,0
-33.2797,14.3207,23.9753,0.979511,-0.201391,0
13.7559,18.9383,13.2876,0.987005,-0.16069,0
8.91147,17.2495,21.4848,0.98362,-0.180252,0
-15.9388,4.79845,1.64863,0.978871,-0.204478,0
38.1331,104.294,3.25792,0.720061,-0.693911,0
-29.8847,22.6355,1.83387,0.977852,-0.209296,0
24.8862,40.3185,25.6472,0.997738,0.0672175,0
-20.8915,125.43,7.31047,0.323746,-0.946144,0
25.0824,63.188,5.7985,0.978267,0.20735,0
44.9934,37.8884,27.6045,0.999613,0.0278191,0
-21.5588,89.2104,0.812704,0.986699,0.162559,0
0.907702,13.9828,6.96258,0.979285,-0.202489,0
-30.6858,103.914,4.21336,0.934692,-0.355458,0
26.2512,66.1909,21.9877,0.976267,0.216569,0
9.60746,55.619,29.0953,0.97634,0.21624,0
3.82678,67.3513,23.116,0.944926,0.327283,0
-32.1875,4.31356,29.3045,0.979851,-0.199731,0
-19.5338,15.4473,2.03906,0.978546,-0.20603,0
-30.0451,6.27132,0.676777,0.978321,-0.207096,0
-10.0622,103.978,3.11729,0.884362,-0.466803,0
-26.7715,9.36726,1.41953,0.978401,-0.206718,0
-26.4527,64.2876,3.67942,0.920299,0.391216,0
-20.9828,59.0138,26.7335,0.998806,0.0488494,0
-19.3247,68.7897,6.38295,0.94101,0.338378,0
-43.4616,106.447,2.49403,0.952996,-0.302981,0
-35.3439,20.4312,4.31286,0.977795,-0.209562,0
-37.0335,3.7322,27.5782,0.979727,-0.200338,0
0.984416,20.4887,14.5176,0.980449,-0.196772,0
13.2441,27.347,5.63614,0.994341,-0.106232,0
-8.62099,83.7158,29.3852,0.902922,0.429804,0
4.97675,128.572,14.0516,0.396888,-0.917867,0
32.6618,59.6681,1.68469,0.988385,0.151972,0
-28.1018,102.083,27.5453,0.960681,-0.277654,0
-25.0179,124.397,0.545431,0.386929,-0.922109,0
-27.8015,22.3067,15.1861,0.978906,-0.20431,0
10.4287,107.662,3.05009,0.646613,-0.762818,0
34.7462,112.537,26.0322,0.709401,-0.704805,0
9.34787,67.4669,13.797,0.945827,0.32467,0
3.97748,127.399,5.43637,0.381179,-0.924501,0
-14.5144,94.2413,4.07645,0.999644,0.0266917,0
-29.678,122.273,0.575844,0.471779,-0.881717,0
-18.5799,14.7293,28.5908,0.980104,-0.198486,0
-10.8475,117.23,27.501,0.539383,-0.84206,0
2.15272,18.6633,0.684204,0.978201,-0.20766,0
28.2813,114.777,11.9672,0.68531,-0.728251,0
-18.4039,83.2401,24.0947,0.948515,0.316733,0
17.3134,1.40784,3.43864,0.982948,-0.183886,0
35.6097,122.078,27.425,0.695063,-0.718949,0
29.2312,57.0708,18.3645,0.988253,0.152824,0
-30.3401,2.19237,24.7985,0.979824,-0.199863,0
-27.3785,123.334,0.572077,0.431888,-0.901927,0
-41.0535,87.9959,27.0839,0.981366,0.192148,0
-24.9476,8.93421,10.9492,0.978936,-0.20417,0
0.456636,12.6722,23.2074,0.980821,-0.194912,0
7.93527,40.4466,12.1685,0.98676,0.162185,0
40.3423,124.342,7.75847,0.704768,-0.709438,0
-1.64689,76.9418,29.0856,0.893004,0.450048,0
-2.52866,127.538,1.59516,0.213541,-0.976934,0
-9.16903,86.6641,28.525,0.926564,0.376138,0
9.77107,18.6282,22.6468,0.984215,-0.176978,0
-39.7388,13.8546,8.7496,0.97811,-0.20809,0
-14.2492,97.3276,17.3957,0.99188,-0.127178,0
8.79926,106.923,8.2695,0.653926,-0.756558,0
37.0953,108.482,29.2526,0.717947,-0.696097,0
-30.1695,82.1762,12.3751,0.935911,0.352237,0
-9.46745,86.0414,13.0795,0.927845,0.372966,0
-0.105809,7.5249,28.3099,0.981033,-0.193842,0
-8.80038,104.854,12.9136,0.859513,-0.511115,0
-44.0169,99.1594,0.574411,0.994903,-0.100838,0
12.3737,34.0361,9.5785,0.999225,0.0393514,0
-29.1665,99.1989,4.18507,0.983844,-0.179025,0
6.23747,125.626,13.4394,0.44448,-0.895789,0
-18.5293,124.243,13.2612,0.307048,-0.951694,0
14.2685,35.2218,7.4423,0.998722,0.0505366,0
-14.9851,6.95346,29.3159,0.980311,-0.197459,0
25.7282,62.1704,28.4823,0.980881,0.194606,0
7.88359,-0.020288,28.8914,0.982335,-0.187133,0
39.8879,20.6548,6.68763,0.998117,-0.0613356,0
-28.6238,3.3625,29.0365,0.979991,-0.199043,0
11.7202,110.756,6.45135,0.638237,-0.76984,0
11.3688,42.8252,28.4017,0.98893,0.148385,0
-36.598,2.64051,28.0796,0.979754,-0.200204,0
-24.9907,119.739,17.9518,0.451282,-0.892382,0
-14.0101,9.02963,22.6554,0.980114,-0.198436,0
-20.3732,69.1744,24.3418,0.936255,0.35132,0
-37.8142,104.198,26.034,0.95267,-0.304008,0
7.87186,73.9617,18.2556,0.923631,0.383283,0
-0.276227,119.424,10.563,0.500059,-0.865991,0
24.46,40.4539,29.3876,0.997527,0.070287,0
-32.657,120.177,0.44088,0.516371,-0.856365,0
-7.72698,71.348,20.7314,0.933155,0.359476,0
-40.7848,3.8644,0.599849,0.977816,-0.209466,0
22.3973,126.228,11.7774,0.622186,-0.78287,0
-29.547,90.9199,5.87578,0.994762,0.102222,0
22.6961,127.924,20.1919,0.623369,-0.781927,0
-39.0851,25.1125,15.2287,0.978556,-0.205981,0
26.4319,118.359,29.2365,0.663886,-0.747833,0
14.3606,64.4077,17.6691,0.961653,0.27427,0
19.1114,122.066,9.6675,0.604882,-0.796315,0
2.3038,2.9363,22.362,0.981225,-0.192864,0
-12.6457,113.009,9.79169,0.731238,-0.682122,0
20.1387,126.459,22.4318,0.602774,-0.797912,0
-7.75309,121.854,26.5007,0.31553,-0.948916,0
-6.90495,15.0705,9.08024,0.979141,-0.203181,0
13.7908,112.412,21.8107,0.629608,-0.776913,0
38.2072,48.5291,26.2632,0.99659,0.0825126,0
-28.2758,76.4274,4.28349,0.888781,0.458331,0
6.29641,107.744,7.13347,0.66663,-0.745388,0
23.8376,124.155,16.4291,0.636359,-0.771393,0
39.8977,122.035,1.21469,0.70656,-0.707653,0
12.4545,15.1761,2.75628,0.982168,-0.188003,0
-38.1187,73.973,8.70486,0.813773,0.581183,0
-40.372,22.7705,19.5292,0.978972,-0.203996,0
12.9995,31.0073,16.0122,0.999934,-0.0114871,0
-2.55951,82.2356,25.8812,0.879088,0.476659,0
-35.0199,7.37584,22.0449,0.979419,-0.201835,0
0.375708,47.0583,17.1042,0.981365,0.19215,0
19.376,44.315,3.34578,0.992879,0.119129,0
14.6677,70.3287,26.7064,0.951428,0.30787,0
-16.0797,-1.23282,11.4063,0.979362,-0.202115,0
10.9705,107.908,9.21867,0.646147,-0.763213,0
4.2441,124.835,14.9467,0.41043,-0.911892,0
-20.0663,90.2011,25.6236,0.991577,0.129517,0
-7.74318,0.907416,26.1221,0.980534,-0.196351,0
11.4387,111.051,3.0653,0.637112,-0.770771,0
-20.7846,58.8752,28.5126,0.999687,0.0250244,0
-18.2325,116.059,9.40202,0.585145,-0.810928,0
-11.1063,84.5864,21.9132,0.927443,0.373965,0
-41.1081,6.19718,12.3451,0.978497,-0.20626,0
31.5862,27.2491,3.76699,0.999479,-0.032289,0
-18.0564,1.33927,1.32863,0.978894,-0.204369,0
39.4398,107.1,29.5172,0.720687,-0.69326,0
3.34132,6.13364,7.76844,0.979909,-0.199446,0
33.4635,58.0714,28.6699,0.990309,0.13888,0
-18.5403,73.738,29.3142,0.929424,0.369015,0
-5.98614,112.587,29.3032,0.716474,-0.697614,0
2.73714,56.6722,2.32064,0.972561,0.232646,0
-27.217,10.3037,0.796438,0.978348,-0.206967,0
-1.38744,109.464,0.722796,0.71602,-0.69808,0
-13.9331,89.3676,5.01333,0.977394,0.211427,0
-35.1849,104.549,7.19994,0.936159,-0.351576,0
-29.1961,85.2444,27.4953,0.960779,0.277316,0
-29.8893,68.1279,5.01493,0.849112,0.528213,0
-26.3321,106.881,25.6728,0.899947,-0.436,0
-15.2622,71.6354,7.67494,0.935363,0.353689,0
5.75765,-1.12152,25.0074,0.981913,-0.189333,0
-15.3184,66.1177,18.0241,0.960602,0.277928,0
-22.5172,121.963,2.96971,0.388474,-0.92146,0
19.9166,128.291,23.8443,0.597341,-0.801988,0
13.3972,120.096,5.02236,0.572295,-0.820048,0
-12.3511,3.86295,3.95164,0.978956,-0.204071,0
-9.89291,88.4476,8.88676,0.946525,0.322631,0
-38.778,112.304,4.45945,0.762582,-0.646892,0
-15.7886,126.373,0.696193,0.246196,-0.96922,0
12.1547,114.768,29.1729,0.612157,-0.790736,0
-19.8766,18.8096,13.0291,0.979129,-0.203241,0
24.2713,62.8799,23.9572,0.977625,0.210355,0
8.04191,21.5822,6.72908,0.981945,-0.189165,0
-2.04226,75.5029,11.597,0.900199,0.43548,0
7.90916,77.4478,8.25197,0.911963,0.410273,0
-23.9738,4.42984,22.4391,0.979915,-0.199416,0
13.5245,106.855,12.857,0.64657,-0.762855,0
-18.6498,91.9833,0.681344,0.995556,0.0941707,0
-24.7899,92.9706,5.61457,0.999239,0.0390129,0
18.1101,15.3539,3.63797,0.986963,-0.160949,0
14.7896,123.07,0.560529,0.560521,-0.82814,0
23.3802,35.6833,29.2327,0.999522,0.030928,0
45.1024,35.0091,24.8721,0.999858,0.0168735,0
25.6899,127.586,22.9916,0.643647,-0.765323,0
40.5944,119.716,10.9423,0.706594,-0.707619,0
36.3728,39.233,0.800609,0.999126,0.0418014,0
5.92479,75.1928,20.4297,0.916802,0.399342,0
12.7952,12.8966,25.5153,0.985077,-0.172116,0
43.9206,30.8297,1.21704,0.999994,-0.00350184,0
0.616369,11.9127,4.86369,0.979184,-0.202974,0
-13.9195,65.9299,10.3221,0.961724,0.27402,0
-7.78026,-1.11719,23.1568,0.980464,-0.196699,0
-8.15029,11.5941,7.50026,0.979084,-0.203458,0
40.3727,118.899,18.7089,0.706949,-0.707264,0
-3.49364,56.5999,14.741,0.97613,0.217187,0
11.0581,-0.550397,16.2479,0.982526,-0.186125,0
-40.366,16.758,11.4696,0.978281,-0.207282,0
-0.822188,114.221,0.727516,0.641206,-0.767369,0
-26.4665,86.9449,25.1967,0.975275,0.220995,0
-27.6953,103.425,0.735458,0.943191,-0.33225,0
5.33109,121.629,17.8422,0.468135,-0.883657,0
-4.42036,121.09,10.2053,0.388115,-0.921611,0
-35.4756,76.1106,9.46665,0.832229,0.554432,0
9.42085,70.4363,17.1561,0.938267,0.345913,0
-5.54132,8.82552,8.77756,0.979278,-0.202522,0
-15.006,127.07,0.696193,0.2361,-0.971729,0
10.093,49.2996,29.0217,0.983649,0.180095,0
-6.1991,50.1799,26.4103,0.986162,0.165783,0
31.2944,36.5908,11.4553,0.999388,0.0349775,0
-0.103928,112.559,25.892,0.661528,-0.749921,0
31.3347,43.5371,8.43113,0.997138,0.0756082,0
11.8387,58.0424,23.0862,0.972863,0.231384,0
9.4415,12.4046,23.8841,0.983184,-0.182615,0
11.6868,116.889,25.1521,0.59225,-0.805754,0
-18.3385,57.613,13.2295,0.982751,0.184934,0
-13.3839,20.3068,21.5095,0.979952,-0.199234,0
23.8599,122.752,26.1072,0.635447,-0.772144,0
1.98058,57.9757,27.8044,0.97175,0.236012,0
0.275748,9.75636,1.5839,0.979115,-0.203307,0
-4.21288,81.6597,1.53371,0.87239,0.488811,0
-40.277,113.048,1.27343,0.740735,-0.671797,0
23.5425,57.6205,11.5697,0.98256,0.185948,0
34.198,108.425,25.256,0.712932,-0.701233,0
-9.7864,88.8203,5.77047,0.94636,0.323114,0
-10.9501,86.7615,0.743094,0.941053,0.33826,0
-37.9868,75.7347,11.9907,0.825537,0.564348,0
-7.57605,63.8639,15.9322,0.963171,0.268891,0
-20.9398,14.9228,17.5957,0.979496,-0.201464,0
-32.7781,16.1059,0.759708,0.977893,-0.209106,0
20.7021,27.8177,7.01049,0.998189,-0.0601514,0
2.9878,80.0657,3.42865,0.882716,0.469906,0
-25.6938,74.8684,2.8203,0.900993,0.433835,0
26.2596,16.1179,18.9012,0.993893,-0.110348,0
-35.0138,9.24077,28.4374,0.97969,-0.200516,0
-33.3648,107.066,3.60928,0.88176,-0.471698,0
-23.0643,72.681,7.46051,0.911302,0.411738,0
38.2324,29.155,7.32141,0.999871,-0.0160671,0
31.9233,32.8972,0.842003,0.999976,0.00687435,0
3.5983,0.628823,0.867853,0.97936,-0.202122,0
-34.4517,13.6981,26.541,0.979578,-0.201065,0
5.40931,125.069,27.3488,0.408802,-0.912623,0
-37.5361,116.245,13.6399,0.687426,-0.726255,0
-4.34869,2.85342,13.9769,0.979899,-0.199495,0
19.5079,126.141,7.03014,0.603403,-0.797437,0
-28.4654,94.5358,29.2769,0.999945,-0.0105086,0
15.9231,125.179,29.073,0.559835,-0.828604,0
24.7651,15.9702,3.40895,0.991282,-0.131755,0
38.8159,112.73,5.26929,0.712944,-0.701221,0
-35.8213,117.941,11.1675,0.608954,-0.793205,0
-29.9452,118.476,25.1273,0.549265,-0.835648,0
-15.0848,108.218,10.3746,0.860848,-0.508862,0
31.2432,126.192,19.7596,0.677397,-0.735617,0
4.25836,11.3165,1.28609,0.979319,-0.202321,0
-40.3679,4.10851,13.1117,0.978642,-0.205574,0
-4.78867,83.9073,0.911268,0.877729,0.479157,0
9.4417,65.0442,26.6503,0.95599,0.293399,0
-1.367,128.277,9.01586,0.26403,-0.964514,0
10.9141,46.1505,13.212,0.984527,0.175233,0
22.4525,127.946,19.0962,0.620689,-0.784057,0
-15.8798,59.3305,0.776901,0.996988,0.0775549,0
-41.94,95.9338,0.667698,0.998787,-0.0492313,0
7.66213,69.7453,10.212,0.936983,0.349376,0
41.7633,46.1716,3.83515,0.997951,0.0639873,0
-12.9797,20.2805,22.8195,0.980023,-0.198886,0
-22.2087,115.257,10.1001,0.61034,-0.79214,0
-27.8996,8.94349,7.05552,0.978552,-0.205998,0
-33.7338,115.114,29.3138,0.659327,-0.751856,0
-17.0183,98.7358,17.3656,0.985624,-0.168956,0
12.0827,10.6434,22.672,0.984477,-0.175512,0
-39.242,88.1872,3.67544,0.983534,0.180723,0
17.442,110.466,9.94591,0.648084,-0.761569,0
-16.2563,96.9162,4.19472,0.995823,-0.0913024,0
14.9498,73.5891,17.306,0.946973,0.321313,0
-12.8068,97.7534,5.06794,0.990517,-0.137392,0
-33.3142,78.7092,15.6972,0.865649,0.500652,0
-11.189,5.4569,26.3791,0.980397,-0.197033,0
-29.2625,99.7353,2.57542,0.980517,-0.196434,0
-37.036,117.436,0.589145,0.60185,-0.798609,0
4.94118,75.1708,18.5074,0.914237,0.40518,0
-24.1748,99.2623,28.4171,0.983926,-0.178578,0
6.19244,128.704,28.9234,0.39008,-0.920781,0
-16.1869,120.185,25.57,0.414341,-0.910122,0
-13.4028,79.8057,4.53302,0.921403,0.388609,0
-7.47009,6.2122,28.606,0.980541,-0.196314,0
13.7908,115.093,1.58442,0.61356,-0.789648,0
39.5747,124.054,6.61677,0.704664,-0.709542,0
-3.85452,83.1013,12.4195,0.884424,0.466684,0
29.8134,63.2746,4.99837,0.983051,0.183331,0
17.0928,65.3338,0.84808,0.963604,0.267335,0
-20.015,71.2424,13.2626,0.924891,0.380232,0
25.2451,34.876,18.3292,0.999726,0.0233973,0
33.9257,59.4691,2.89069,0.989507,0.144484,0
20.6415,58.2073,13.4489,0.979941,0.19929,0
-12.4922,101.571,4.93622,0.943646,-0.330956,0
-36.7179,116.381,9.31751,0.656035,-0.754731,0
10.2163,121.816,20.2649,0.529288,-0.848442,0
-31.2209,11.2361,3.73915,0.97816,-0.207854,0
23.1951,127.872,18.1654,0.62615,-0.779703,0
15.381,114.067,0.651242,0.628191,-0.778059,0
6.72986,68.9959,13.0276,0.938957,0.344035,0
-42.09,106.817,28.3059,0.939992,-0.341197,0
-18.758,0.280246,14.1096,0.97953,-0.201296,0
-13.3783,13.9555,8.28882,0.978965,-0.204028,0
-8.52973,125.853,26.7836,0.208644,-0.977992,0
16.5278,107.26,28.299,0.654013,-0.756484,0
24.4809,16.5042,20.6401,0.993316,-0.115427,0
23.6195,106.515,24.9833,0.680118,-0.733103,0
5.26116,113.34,22.5579,0.628128,-0.77811,0
13.234,-0.303567,21.2232,0.983633,-0.180185,0
-21.9629,17.427,2.92236,0.978409,-0.206676,0
-15.5493,65.1021,27.6607,0.979141,0.20318,0
17.2132,30.0874,18.5761,0.999606,-0.0280579,0
6.22957,119.458,25.6265,0.515086,-0.857138,0
-0.505814,50.192,21.1554,0.981394,0.192006,0
40.0152,112.309,13.278,0.713922,-0.700225,0
40.0138,112.402,3.19499,0.713925,-0.700222,0
20.1022,116.751,4.77948,0.637058,-0.770816,0
30.8544,111.478,4.20554,0.700055,-0.714089,0
-32.0423,116.353,3.84149,0.585156,-0.810921,0
-34.5898,109.327,5.24989,0.818312,-0.574774,0
-22.6876,91.4245,7.37439,0.99645,0.0841866,0
40.8618,23.0692,2.50641,0.999028,-0.0440703,0
21.0736,111.869,3.97801,0.663181,-0.748459,0
-21.5505,19.2147,14.5339,0.979189,-0.202951,0
13.8473,32.9909,20.8342,0.999886,0.0150699,0
31.5117,26.8488,4.53459,0.999429,-0.033786,0
39.7444,42.3884,19.4362,0.99866,0.051757,0
20.7778,112.879,25.6268,0.653351,-0.757055,0
19.2994,10.3359,7.27894,0.98621,-0.165501,0
15.3163,0.67832,18.1004,0.984176,-0.177193,0
-7.22256,79.1357,22.4666,0.896679,0.442681,0
-26.9578,21.7005,4.42845,0.978127,-0.20801,0
10.9383,45.2362,8.69227,0.985891,0.167389,0
24.8448,21.6798,0.793758,0.995332,-0.0965062,0
-18.6874,87.2283,25.0642,0.973723,0.227734,0
16.2802,14.547,0.634747,0.985202,-0.171398,0
-30.4272,91.6429,1.71429,0.997278,0.0737367,0
-0.310031,16.3941,4.73672,0.978817,-0.204736,0
-11.4435,7.69432,11.0906,0.979362,-0.202113,0
-42.388,93.8774,7.4727,0.999994,0.00355271,0
3.40554,46.9143,1.60958,0.981666,0.190611,0
