-54.4027,36.6626,-4.15708,0.172473,-0.985014,0
-46.9172,44.9001,-4.96623,0.170741,-0.985316,0
-49.2015,41.2449,-4.78855,0.171719,-0.985146,0
-46.6261,37.6561,-11.0312,0.171463,-0.98519,0
-44.1589,40.8447,-10.1121,0.17016,-0.985416,0
-41.7631,40.7132,-13.4708,0.168865,-0.985639,0
-41.6439,38.9733,-14.3696,0.16919,-0.985583,0
-40.2689,41.5938,-14.2629,0.167623,-0.985851,0
-39.218,37.9487,-17.9845,0.167797,-0.985822,0
-40.4239,39.6415,-18.0316,0.168136,-0.985764,0
-40.4607,38.4627,-17.0445,0.168381,-0.985722,0
-39.4066,36.9985,-18.9971,0.167951,-0.985795,0
-40.9724,45.6528,-10.8284,0.167514,-0.98587,0
-42.8498,41.7579,-10.9375,0.169325,-0.98556,0
-45.0569,44.2589,-7.27113,0.170124,-0.985423,0
-41.6503,44.6902,-10.01,0.168261,-0.985743,0
-42.1066,37.7493,-13.454,0.16981,-0.985477,0
-46.3744,34.9301,-11.6671,0.17166,-0.985156,0
-43.2959,37.285,-14.4138,0.170356,-0.985383,0
-42.8753,35.2697,-15.3084,0.17044,-0.985368,0
-42.8333,38.5089,-15.3294,0.169894,-0.985462,0
-42.2334,34.784,-17.1639,0.170055,-0.985435,0
-44.3104,34.3942,-15.3183,0.171076,-0.985258,0
-48.4112,32.8669,-10.4492,0.172158,-0.985069,0
-40.47,35.8029,-18.9971,0.168696,-0.985668,0
-45.1239,37.113,-13.9157,0.171107,-0.985252,0
-46.2414,38.0039,-13.9631,0.171263,-0.985225,0
-48.5922,38.267,-10.6615,0.171761,-0.985139,0
-50.6663,36.1375,-10.166,0.172292,-0.985046,0
-50.4203,34.6859,-9.6889,0.172338,-0.985038,0
-44.4798,46.208,-9.05123,0.169785,-0.985481,0
-43.5578,46.3401,-10.7138,0.169404,-0.985547,0
-51.0612,38.5823,-6.25315,0.172271,-0.98505,0
-45.9477,41.4615,-10.6434,0.170782,-0.985309,0
-48.7018,40.5735,-7.49751,0.171668,-0.985155,0
-46.8951,42.2075,-9.12156,0.171059,-0.985261,0
-48.6794,38.0917,-9.01291,0.171845,-0.985124,0
-43.1595,41.8048,-13.9002,0.169499,-0.98553,0
-46.1823,39.2032,-14.5588,0.17106,-0.985261,0
-47.0923,38.1288,-14.8983,0.171452,-0.985192,0
-48.9918,37.2682,-11.8876,0.171931,-0.985109,0
-46.9068,40.4115,-11.3917,0.171198,-0.985237,0
-48.821,39.994,-10.9911,0.171687,-0.985152,0
-46.7305,41.3597,-12.6694,0.171034,-0.985265,0
-45.7714,42.4097,-11.9211,0.170556,-0.985348,0
-46.8342,44.8975,-7.77724,0.170757,-0.985313,0
-51.0171,38.5169,-8.1097,0.172193,-0.985063,0
-49.7174,36.0316,-11.9012,0.172144,-0.985072,0
-52.3874,35.6994,-10.1152,0.172453,-0.985018,0
-52.1414,34.2478,-9.63806,0.172465,-0.985016,0
-53.4491,36.5914,-9.2034,0.172487,-0.985012,0
-52.7173,38.3476,-8.86008,0.172415,-0.985024,0
-49.7078,40.4481,-9.82728,0.171813,-0.98513,0
-49.6686,39.4099,-8.61875,0.17188,-0.985118,0
-48.7409,41.6117,-8.70605,0.171548,-0.985176,0
-46.5532,36.1199,-19.0811,0.171486,-0.985186,0
-47.2765,36.1835,-17.5959,0.17171,-0.985148,0
-50.4773,34.57,-18.1021,0.172339,-0.985038,0
-46.6496,33.3575,-19.007,0.171843,-0.985124,0
-46.0415,34.8771,-18.1039,0.171563,-0.985173,0
-52.8772,33.2682,-11.1208,0.172513,-0.985007,0
-48.07,32.5902,-18.0813,0.172122,-0.985076,0
-51.3582,32.3746,-13.67,0.172465,-0.985016,0
-52.9034,30.3653,-12.082,0.172547,-0.985001,0
-48.3993,32.8446,-14.7399,0.172159,-0.985069,0
-49.6736,33.2484,-13.9224,0.172286,-0.985047,0
-44.307,32.7856,-18.077,0.171319,-0.985216,0
-43.0962,33.0493,-19.0541,0.170775,-0.98531,0
-53.7088,32.855,-7.4796,0.172547,-0.985001,0
-53.137,29.5293,-6.69335,0.172557,-0.985,0
-52.4409,30.9137,-7.38902,0.172534,-0.985004,0
-51.0129,30.4646,-8.13702,0.172435,-0.985021,0
-45.9283,34.1538,-13.2679,0.171632,-0.985161,0
-44.3412,37.9234,-10.7934,0.170647,-0.985332,0
-45.3044,36.9219,-10.0401,0.171163,-0.985243,0
-44.2583,40.8247,-8.25336,0.170155,-0.985417,0
-50.2532,33.4679,-5.29914,0.172283,-0.985047,0
-50.7882,36.8717,-4.92793,0.172235,-0.985056,0
-50.242,32.9926,-6.89411,0.172316,-0.985042,0
-49.6179,34.4026,-8.00991,0.172211,-0.98506,0
-52.623,32.3583,-4.81966,0.172541,-0.985002,0
-51.9408,33.2297,-6.75589,0.172464,-0.985016,0
-53.6191,32.7581,-4.01395,0.172547,-0.985001,0
-51.952,33.705,-5.16092,0.17243,-0.985022,0
-52.6118,31.883,-6.41463,0.172521,-0.985006,0
-41.5813,42.9016,-10.0401,0.168396,-0.985719,0
-44.9574,42.5441,-5.40127,0.170189,-0.985412,0
-47.3318,40.5777,-5.15217,0.171303,-0.985218,0
-41.9329,34.3229,-14.4637,0.170094,-0.985428,0
-49.1025,35.959,-7.2554,0.172074,-0.985084,0
-45.2085,35.1329,-10.3529,0.171253,-0.985227,0
-48.1736,33.5066,-8.83174,0.172044,-0.985089,0
-49.8189,35.5667,-5.53601,0.172131,-0.985074,0
-49.7583,37.1246,-3.68302,0.172034,-0.985091,0
-47.5019,35.8475,-6.8882,0.171744,-0.985142,0
-40.5115,33.4868,-15.3977,0.169452,-0.985538,0
-41.2912,36.1194,-13.5309,0.169578,-0.985517,0
-47.0233,37.4292,-7.65068,0.171522,-0.98518,0
-45.6144,36.8703,-8.30817,0.171193,-0.985238,0
-46.1594,38.4106,-6.54525,0.17121,-0.985234,0
-42.7686,37.7801,-11.6417,0.169921,-0.985458,0
-42.2236,38.9172,-10.7176,0.169514,-0.985528,0
-38.9551,32.1053,-19.0626,0.168685,-0.98567,0
-40.6331,33.6027,-17.1455,0.169383,-0.98555,0
-38.598,33.3916,-19.0626,0.168068,-0.985775,0
-46.4779,37.7706,-4.79129,0.171249,-0.985228,0
-47.3675,36.1335,-5.00094,0.17159,-0.985169,0
-46.7634,34.2957,-7.94661,0.171662,-0.985156,0
-45.5185,35.0813,-8.62095,0.17127,-0.985224,0
-44.7506,37.8518,-7.20274,0.170712,-0.985321,0
-43.8956,39.0405,-8.01057,0.170186,-0.985412,0
-37.6313,36.8346,-17.033,0.166817,-0.985988,0
-40.3065,45.9942,-7.70768,0.167041,-0.98595,0
-40.9316,46.7676,-6.50283,0.167457,-0.985879,0
-39.3737,45.2676,-6.65837,0.166274,-0.98608,0
-39.9988,46.0411,-5.45352,0.166711,-0.986006,0
-40.8827,36.0604,-12.0824,0.169481,-0.985533,0
-41.4421,36.8188,-11.0308,0.169571,-0.985518,0
-40.0696,40.7961,-10.5245,0.167632,-0.98585,0
-39.8634,42.1586,-9.66544,0.167368,-0.985894,0
-52.5187,31.7666,-3.93215,0.172551,-0.985001,0
-48.7889,35.8196,-4.2911,0.171892,-0.985116,0
-51.6612,31.7495,-2.58283,0.172498,-0.98501,0
-47.2133,39.1161,-4.03346,0.171345,-0.985211,0
-43.0717,33.5164,-11.3171,0.170814,-0.985303,0
-43.9411,34.2232,-8.53356,0.170921,-0.985285,0
-45.9037,33.0331,-7.08872,0.171499,-0.985184,0
-42.8218,42.1119,-2.52443,0.169423,-0.985543,0
-43.607,41.0959,-3.43961,0.169874,-0.985466,0
-46.8119,39.3424,-0.916987,0.171176,-0.985241,0
-37.0946,43.0466,-9.32703,0.164302,-0.98641,0
-37.1943,39.8972,-11.2828,0.16536,-0.986233,0
-40.5375,41.2683,-6.9456,0.167888,-0.985806,0
-38.9965,36.5278,-13.0645,0.167773,-0.985826,0
-39.0966,34.2135,-14.6936,0.16834,-0.985729,0
-39.2434,35.1168,-13.1797,0.168279,-0.985739,0
-36.9577,33.7689,-19.0626,0.166988,-0.985959,0
-36.3769,34.9289,-18.1112,0.166423,-0.986054,0
-35.2783,34.1554,-17.2023,0.165594,-0.986194,0
-35.7769,34.0036,-15.5681,0.16586,-0.986149,0
-35.859,32.9955,-18.1538,0.16626,-0.986082,0
-37.5753,36.9977,-12.1489,0.166556,-0.986032,0
-37.2668,37.7657,-13.5718,0.166031,-0.986121,0
-35.8211,37.1593,-14.4833,0.164929,-0.986305,0
-41.689,35.4078,-11.146,0.16978,-0.985482,0
-39.5418,38.9971,-9.97482,0.167762,-0.985827,0
-40.5991,43.1567,-4.1989,0.167476,-0.985876,0
-39.3118,43.3413,-7.06259,0.166454,-0.986049,0
-39.6737,42.3304,-5.86617,0.166826,-0.985986,0
-41.5786,39.4107,-6.24634,0.169023,-0.985612,0
-42.2292,38.4065,-7.36535,0.169618,-0.98551,0
-39.4481,38.5065,-8.48128,0.16784,-0.985814,0
-40.8034,37.4653,-8.61319,0.168988,-0.985618,0
-49.2319,32.153,-4.11736,0.172125,-0.985075,0
-46.7474,31.3487,-7.86265,0.171808,-0.98513,0
-41.1266,34.5765,-10.3362,0.169658,-0.985503,0
-42.4013,34.5094,-10.9162,0.170281,-0.985396,0
-37.9858,30.7198,-18.1638,0.16822,-0.985749,0
-42.3135,30.8036,-14.327,0.170536,-0.985351,0
-34.514,15.3774,-2.89751,0.169002,-0.985616,0
-32.3574,13.5869,-3.42751,0.167572,-0.98586,0
-33.1864,14.7016,-2.66267,0.168311,-0.985734,0
-38.7589,20.0284,-4.68858,0.170336,-0.985386,0
-37.5151,19.9078,-3.81126,0.169756,-0.985486,0
-37.6567,18.3315,-2.73294,0.169977,-0.985448,0
-41.1401,28.1447,-12.0168,0.170278,-0.985396,0
-36.53,31.2327,-17.2549,0.167081,-0.985943,0
-38.5579,22.8146,-7.17853,0.169924,-0.985457,0
-39.8125,23.7157,-7.65596,0.170284,-0.985395,0
-38.5442,28.3227,-13.7191,0.168976,-0.98562,0
-35.7364,28.0385,-14.5532,0.167013,-0.985955,0
-35.5698,22.4419,-9.93174,0.168333,-0.98573,0
-33.6988,22.1371,-9.83071,0.167114,-0.985938,0
-36.017,22.1543,-8.42913,0.168796,-0.985651,0
-33.7047,18.1736,-6.84954,0.167997,-0.985788,0
-35.464,19.8694,-6.50841,0.168899,-0.985633,0
-35.092,18.4182,-6.90958,0.1688,-0.98565,0
-33.1607,17.3255,-7.62134,0.167549,-0.985864,0
-32.5557,18.5098,-7.06153,0.166732,-0.986002,0
-31.3652,14.6587,-2.63928,0.166788,-0.985993,0
-32.1942,15.7735,-1.87444,0.167346,-0.985898,0
-34.1141,18.0565,-4.17822,0.168308,-0.985735,0
-34.402,17.6892,-5.80409,0.168533,-0.985696,0
-35.2326,16.7472,-3.25854,0.168982,-0.985619,0
-32.3109,19.9598,-0.226834,0.16685,-0.985982,0
-36.3601,24.0171,-0.142914,0.168805,-0.98565,0
-35.8619,25.5948,-2.68313,0.168221,-0.985749,0
-39.2124,26.0017,0.0286871,0.169955,-0.985452,0
-33.6496,28.4605,-0.44188,0.16565,-0.986185,0
-35.3878,29.2994,-0.415531,0.166792,-0.985992,0
-41.9029,31.2261,-5.38649,0.170175,-0.985414,0
-43.1234,33.1153,-6.70216,0.170669,-0.985328,0
-39.8,33.0393,-3.81485,0.168688,-0.98567,0
-39.9394,31.9445,-7.69489,0.169357,-0.985555,0
-38.9347,31.6751,-6.48154,0.168616,-0.985682,0
-41.8569,31.5,-7.09924,0.170247,-0.985401,0
-42.0796,35.7471,-5.11342,0.169934,-0.985455,0
-40.4326,35.8098,-4.38171,0.168881,-0.985636,0
-39.0795,34.8286,-7.75862,0.168134,-0.985764,0
-38.1071,34.4657,-6.39238,0.16739,-0.985891,0
-41.0204,34.3858,-3.3601,0.169254,-0.985572,0
-37.6441,33.0463,-5.87017,0.167478,-0.985876,0
-41.3498,34.8784,-7.56963,0.169804,-0.985478,0
-42.2222,35.658,-6.64747,0.170092,-0.985428,0
-40.1804,31.3612,-4.94364,0.169255,-0.985572,0
-42.764,34.5079,-7.33861,0.170372,-0.98538,0
-40.2793,34.7886,-7.93348,0.169096,-0.9856,0
-43.2093,32.3919,-3.97296,0.170601,-0.98534,0
-39.6213,33.6785,-8.44976,0.16891,-0.985632,0
-42.7072,33.8736,-3.07535,0.170119,-0.985424,0
-43.5337,34.9271,-3.86595,0.170448,-0.985367,0
-44.0357,33.4454,-4.76355,0.170773,-0.98531,0
-38.5322,35.2681,-4.91337,0.167614,-0.985853,0
-38.0693,33.8486,-4.39115,0.167718,-0.985835,0
-44.559,31.9077,-1.25039,0.171167,-0.985242,0
-44.8094,31.6884,-3.1643,0.17117,-0.985242,0
-42.8034,32.7791,-0.470901,0.170436,-0.985369,0
-46.3666,32.1647,-4.06866,0.171606,-0.985166,0
-44.8702,36.0047,-1.18043,0.170849,-0.985297,0
-42.5517,34.0414,-1.4872,0.170047,-0.985436,0
-43.1232,35.3082,-0.464071,0.170308,-0.985391,0
-47.9341,34.6028,-3.14403,0.171775,-0.985136,0
-49.7238,32.6765,-1.06249,0.172254,-0.985053,0
-49.9153,31.4778,-2.68021,0.172305,-0.985044,0
-48.3495,33.4794,-1.36942,0.171994,-0.985098,0
-48.3409,35.0472,-1.30629,0.171821,-0.985128,0
-47.9427,33.035,-3.20716,0.171875,-0.985119,0
-43.4602,28.7858,-7.55092,0.17124,-0.985229,0
-42.4488,30.2624,-8.194,0.17073,-0.985318,0
-43.8717,31.0932,-8.98595,0.171149,-0.985245,0
-42.7809,27.3858,-8.02481,0.171088,-0.985256,0
-41.0224,30.0666,-9.46212,0.170173,-0.985414,0
-38.8695,29.8713,-14.6054,0.168864,-0.985639,0
-39.7172,31.1408,-13.7565,0.169322,-0.985561,0
-37.4394,30.2491,-14.2607,0.167894,-0.985805,0
-36.2172,30.792,-15.5195,0.166936,-0.985968,0
-34.9899,29.5346,-15.4522,0.166158,-0.986099,0
-36.0449,32.4029,-14.7842,0.166395,-0.986059,0
-34.3491,22.7145,-5.8993,0.167655,-0.985846,0
-33.1691,21.5827,-8.16946,0.166712,-0.986006,0
-33.0836,23.6322,-10.5258,0.166278,-0.986079,0
-34.8177,26.033,-10.4753,0.167153,-0.985931,0
-35.6521,23.9132,-6.12811,0.16844,-0.985712,0
-34.6267,21.5554,-7.28363,0.168016,-0.985784,0
-36.6771,25.1581,-8.46282,0.168868,-0.985639,0
-35.9349,26.3463,-6.99795,0.168116,-0.985767,0
-35.3232,25.4334,-5.6501,0.167851,-0.985812,0
-33.6119,27.6122,-5.86458,0.165574,-0.986197,0
-33.6315,26.8103,-9.85101,0.165737,-0.98617,0
-34.573,24.7571,-11.2715,0.167234,-0.985917,0
-33.5637,26.0561,-5.10879,0.166036,-0.98612,0
-34.8428,27.621,-7.04212,0.166623,-0.986021,0
-34.9354,35.7251,-11.5171,0.164253,-0.986418,0
-34.0109,31.5157,-9.32879,0.164256,-0.986418,0
-34.7856,32.6984,-13.6477,0.165044,-0.986286,0
-35.4606,34.3378,-10.5795,0.165093,-0.986278,0
-35.5167,32.7956,-11.7163,0.165621,-0.986189,0
-34.3674,31.4485,-10.9184,0.164864,-0.986316,0
-35.2171,38.8154,-9.52563,0.163673,-0.986515,0
-35.5815,40.1791,-10.3932,0.163244,-0.986586,0
-36.9216,46.0081,-2.18674,0.163829,-0.986489,0
-39.6309,46.1125,-3.10742,0.166436,-0.986052,0
-38.6858,45.5867,-1.78296,0.165567,-0.986199,0
-37.016,44.2965,-2.0992,0.164044,-0.986453,0
-37.8223,41.9453,-5.64133,0.165369,-0.986232,0
-37.8099,42.1937,-3.99273,0.165229,-0.986255,0
-39.4621,42.6165,-3.02831,0.166568,-0.98603,0
-36.4962,43.1671,-6.56038,0.163933,-0.986471,0
-37.5658,43.7375,-7.47254,0.164844,-0.98632,0
-38.7802,43.875,-1.69543,0.165693,-0.986177,0
-40.3151,46.9261,-1.96525,0.166853,-0.985982,0
-39.3699,46.4002,-0.64079,0.16609,-0.986111,0
-40.0227,41.2874,-1.82465,0.167672,-0.985843,0
-42.8601,38.215,-0.387767,0.169943,-0.985454,0
-41.6631,40.9929,-1.60548,0.168858,-0.98564,0
-41.9503,39.2145,-1.87059,0.169328,-0.98556,0
-42.9497,39.3525,-3.24998,0.16981,-0.985477,0
-44.6852,38.5043,-2.70316,0.17055,-0.985349,0
-44.5891,37.6576,-0.985317,0.170592,-0.985342,0
-36.0558,43.8601,-0.934842,0.162781,-0.986662,0
-38.3474,34.1994,-11.3265,0.16806,-0.985777,0
-36.8666,34.9456,-10.2021,0.166476,-0.986046,0
-37.2671,31.86,-13.5253,0.167529,-0.985867,0
-38.6917,32.6559,-13.513,0.16838,-0.985722,0
-36.3415,36.3329,-11.1396,0.165748,-0.986168,0
-36.9263,31.9048,-11.6067,0.167265,-0.985912,0
-38.3509,32.7008,-11.5944,0.168243,-0.985746,0
-34.4171,27.3592,-13.4507,0.166247,-0.986084,0
-36.7443,28.5982,-11.5403,0.167969,-0.985792,0
-35.0848,27.4794,-11.7066,0.16678,-0.985994,0
-33.8986,28.2567,-11.0823,0.165637,-0.986187,0
-43.1563,29.6454,-1.03195,0.170908,-0.985287,0
-46.879,26.3286,-2.36831,0.172072,-0.985084,0
-47.0416,28.1104,-2.12604,0.171994,-0.985098,0
-46.8868,28.027,-3.99096,0.171963,-0.985103,0
-44.4401,30.4789,-1.62941,0.171246,-0.985228,0
-45.5604,29.3596,-0.83416,0.171605,-0.985166,0
-45.2971,23.9499,-0.500445,0.172079,-0.985083,0
-49.033,27.2092,-0.875787,0.172437,-0.985021,0
-53.3314,30.2284,-0.766706,0.172602,-0.984992,0
-49.5701,29.5776,-2.91968,0.172312,-0.985042,0
-48.5349,28.7364,-1.44009,0.172223,-0.985058,0
-37.7995,38.456,-10.8518,0.166347,-0.986067,0
-36.5657,37.7911,-9.84258,0.165596,-0.986194,0
-37.9604,29.9221,-9.05295,0.168732,-0.985662,0
-44.9264,37.3008,-3.91473,0.170707,-0.985322,0
-45.7873,33.3681,-4.88324,0.171328,-0.985214,0
-45.1251,35.7914,-2.99416,0.17086,-0.985295,0
-46.5127,34.9167,-3.85386,0.171388,-0.985204,0
-43.0842,37.2177,-6.55751,0.170134,-0.985421,0
-42.9415,37.3069,-5.02346,0.170052,-0.985435,0
-44.3005,32.8306,-7.89711,0.171059,-0.985261,0
-47.6558,31.2827,-4.97885,0.171929,-0.985109,0
-43.81,28.645,-5.82465,0.171298,-0.985219,0
-45.6559,29.0569,-4.61299,0.17162,-0.985163,0
-44.6905,30.2596,-3.54331,0.171214,-0.985234,0
-47.064,29.6037,-5.14417,0.171918,-0.985111,0
-47.9202,30.8018,-6.56737,0.171991,-0.985098,0
-39.5686,33.6284,-10.2954,0.168974,-0.985621,0
-39.5721,32.1298,-10.5632,0.169194,-0.985583,0
-39.3791,31.0644,-9.12059,0.169364,-0.985554,0
-40.7859,35.4969,-8.72751,0.169387,-0.98555,0
-39.8681,39.6004,-6.99843,0.167827,-0.985817,0
-38.4968,39.172,-5.94046,0.166452,-0.98605,0
-37.7488,37.514,-8.38874,0.166513,-0.986039,0
-36.5736,35.1618,-7.11359,0.166038,-0.986119,0
-37.1072,38.1556,-6.98665,0.165611,-0.986191,0
-37.546,35.5247,-8.47984,0.16679,-0.985992,0
-36.4195,36.6618,-6.11615,0.165411,-0.986225,0
-41.7768,38.5195,-4.69256,0.16936,-0.985554,0
-34.5894,34.2122,-7.44266,0.164218,-0.986424,0
-35.067,30.0157,-10.2435,0.165977,-0.98613,0
-34.289,32.7372,-6.98982,0.164222,-0.986423,0
-36.7288,30.1916,-10.5079,0.167486,-0.985874,0
-34.7105,30.0829,-8.6539,0.165714,-0.986174,0
-39.3706,33.5915,-1.30425,0.168488,-0.985704,0
-40.8648,34.5536,-1.77194,0.169192,-0.985583,0
-40.2887,37.5223,-4.05674,0.168471,-0.985707,0
-39.3196,39.2742,-2.104,0.167505,-0.985871,0
-38.4785,38.4385,-0.774213,0.167054,-0.985948,0
-40.533,36.529,-1.08728,0.168898,-0.985634,0
-38.2516,39.1127,-3.32913,0.166458,-0.986049,0
-37.3268,36.5283,-4.66915,0.166268,-0.986081,0
-39.1839,36.6085,-0.172533,0.16797,-0.985792,0
-38.7192,37.9851,-4.55254,0.166913,-0.985972,0
-38.1911,35.022,-0.434161,0.167511,-0.98587,0
-36.939,33.6839,-3.18344,0.166994,-0.985958,0
-35.7441,34.5384,-2.2513,0.165688,-0.986178,0
-40.5446,38.0737,-2.35045,0.16855,-0.985693,0
-36.2954,35.1596,-0.8049,0.166047,-0.986118,0
-35.9897,36.9587,-3.32313,0.164916,-0.986308,0
-36.5409,37.58,-1.87673,0.16525,-0.986252,0
-38.6697,32.8746,-2.60714,0.168195,-0.985754,0
-37.4105,38.2771,-1.99934,0.16595,-0.986134,0
-35.1438,36.0039,-2.34993,0.164491,-0.986379,0
-35.6951,36.6251,-0.903534,0.164863,-0.986316,0
-37.3148,40.4548,-5.66279,0.165129,-0.986272,0
-36.3062,39.0153,-1.61604,0.16492,-0.986307,0
-35.5881,38.9281,-7.59064,0.163826,-0.986489,0
-37.3024,40.7032,-4.01419,0.165138,-0.98627,0
-36.0762,30.5897,-7.20735,0.166765,-0.985997,0
-37.6644,30.2531,-7.34198,0.168116,-0.985767,0
-35.8102,32.2674,-6.13854,0.165985,-0.986128,0
-35.0135,30.1605,-4.53418,0.166046,-0.986118,0
-34.8738,31.8814,-4.64978,0.165359,-0.986233,0
-35.731,29.3643,-6.13016,0.166946,-0.985966,0
-37.3191,29.0277,-6.26478,0.168264,-0.985742,0
-35.5774,32.4955,-3.17369,0.166063,-0.986115,0
-37.082,30.4362,-2.34093,0.167883,-0.985807,0
-35.7171,30.7746,-3.05809,0.166807,-0.98599,0
-38.673,31.3478,-1.88022,0.168528,-0.985697,0
-34.3825,33.35,-2.24155,0.164867,-0.986316,0
-35.5573,30.9059,-0.527103,0.166561,-0.986031,0
-39.3738,32.0647,-0.577341,0.168717,-0.985664,0
-35.9505,30.3595,-1.89066,0.167135,-0.985934,0
-39.2373,27.4508,0.6846,0.169601,-0.985513,0
-34.0429,27.9142,-1.80544,0.166157,-0.986099,0
-35.7811,28.7531,-1.77909,0.167191,-0.985925,0
-34.1486,26.2051,-2.05357,0.166636,-0.986019,0
-39.486,22.3936,-0.630674,0.170525,-0.985353,0
-42.5721,26.4166,-6.52466,0.171189,-0.985238,0
-43.3125,25.5285,-0.851473,0.171454,-0.985192,0
-41.35,24.788,-1.63461,0.170913,-0.985286,0
-44.4336,24.5802,-1.69119,0.171805,-0.985131,0
-43.327,27.1224,-5.26167,0.171329,-0.985214,0
-44.044,26.7843,-1.58763,0.171391,-0.985203,0
-45.1652,25.836,-2.42736,0.171768,-0.985138,0
-37.4337,27.5232,-6.77426,0.168848,-0.985642,0
-38.5645,23.0547,-5.24084,0.169949,-0.985453,0
-36.7487,23.7922,-4.70463,0.168999,-0.985616,0
-39.0171,26.904,-7.7297,0.169571,-0.985518,0
-36.4198,25.3124,-4.22662,0.168615,-0.985682,0
-40.0153,23.8333,-4.68141,0.170466,-0.985364,0
-40.817,25.9759,-2.42746,0.170489,-0.985359,0
-39.1342,26.4115,-1.51357,0.169773,-0.985483,0
-39.9646,26.8796,-6.29443,0.170027,-0.985439,0
-41.8445,27.4323,-4.40185,0.170975,-0.985275,0
-38.2666,29.0032,-4.82952,0.168988,-0.985618,0
-40.6532,29.0782,-1.39227,0.169946,-0.985453,0
-42.4066,27.0108,-2.59273,0.170888,-0.98529,0
-37.8895,29.1545,-2.97382,0.168697,-0.985668,0
-39.1591,27.8607,-0.857657,0.1695,-0.98553,0
-41.0895,26.7265,-5.66483,0.170661,-0.98533,0
-39.7588,25.4593,-4.05778,0.170199,-0.98541,0
-42.2179,28.664,-2.21345,0.17064,-0.985333,0
-39.8576,29.9148,-4.36881,0.169471,-0.985535,0
-39.4805,30.0661,-2.51311,0.169161,-0.985589,0
-41.5801,29.7797,-4.81167,0.170345,-0.985385,0
-37.9791,26.2009,-4.13921,0.169314,-0.985562,0
-38.3812,27.4987,-5.339,0.169295,-0.985566,0
-37.4212,26.4833,-2.59572,0.168997,-0.985617,0
-37.4461,27.9325,-1.9398,0.168596,-0.985685,0
-40.5935,25.7884,-5.48604,0.170392,-0.985376,0
-42.3275,28.9549,-4.96482,0.170859,-0.985295,0
-42.7676,29.5167,-3.77715,0.170764,-0.985312,0
-33.6412,24.9159,-0.865075,0.166467,-0.986047,0
-31.597,18.4379,-0.44151,0.1664,-0.986058,0
-32.3998,18.7556,-3.45891,0.166866,-0.98598,0
-31.8265,17.7316,-2.16573,0.166425,-0.986054,0
-33.5249,20.2834,-1.33111,0.167531,-0.985867,0
-36.3498,22.5952,-0.633679,0.169081,-0.985602,0
-34.6923,23.526,-1.4629,0.167612,-0.985853,0
-37.9658,21.8348,-1.16983,0.169821,-0.985475,0
-37.5449,20.6159,-0.189668,0.169886,-0.985464,0
-33.3843,19.7855,-2.83897,0.167519,-0.985869,0
-35.9265,23.4475,-1.15353,0.168467,-0.985707,0
-33.3705,22.0178,-1.91435,0.166957,-0.985964,0
-36.1805,22.6528,-3.6519,0.168827,-0.985646,0
-34.7836,21.8138,-4.44409,0.168127,-0.985765,0
-33.2299,21.5199,-3.42221,0.167001,-0.985957,0
-35.9485,23.867,-2.17858,0.168282,-0.985739,0
-35.3425,15.2468,-0.0461167,0.169762,-0.985485,0
-35.7736,16.1253,0.671532,0.169834,-0.985473,0
-36.2763,14.7757,1.01149,0.170091,-0.985428,0
-38.2132,16.379,0.655132,0.170596,-0.985341,0
-41.4931,18.3532,0.330386,0.171542,-0.985177,0
-33.8866,13.5709,0.00366804,0.169164,-0.985588,0
-34.2734,14.5255,1.00347,0.16935,-0.985556,0
-34.9557,14.2922,-1.04591,0.169483,-0.985533,0
-52.3337,25.0017,-1.78181,0.172705,-0.984974,0
-51.4565,25.8281,-2.64313,0.172636,-0.984986,0
-34.5548,14.3629,-1.94696,0.169145,-0.985591,0
-35.0575,13.0133,-1.60701,0.16971,-0.985494,0
-46.3433,21.5244,-1.81645,0.172383,-0.98503,0
-45.7172,20.1929,-0.929741,0.172355,-0.985035,0
-48.3419,22.411,0.792389,0.172616,-0.984989,0
-42.3624,17.1129,1.44871,0.17192,-0.985111,0
-43.2846,17.7461,2.53556,0.172161,-0.985069,0
-41.7971,20.5635,10.9939,0.171713,-0.985147,0
-40.4695,18.6268,7.55454,0.171488,-0.985186,0
-36.8742,13.6856,5.17226,0.170554,-0.985348,0
-35.7499,12.9293,6.03164,0.170051,-0.985435,0
-37.6725,20.2548,11.8015,0.170221,-0.985406,0
-38.9794,17.9716,10.4454,0.170942,-0.985281,0
-36.6959,16.7151,9.26451,0.170142,-0.98542,0
-39.0772,18.4784,8.85616,0.17093,-0.985283,0
-39.7238,17.3192,7.93132,0.171286,-0.985221,0
-37.967,14.8289,5.6212,0.170935,-0.985282,0
-38.3043,14.7839,7.19459,0.17102,-0.985267,0
-42.8506,24.8194,11.9971,0.171721,-0.985146,0
-43.8755,24.0571,11.1244,0.171941,-0.985107,0
-40.4198,19.0273,5.46324,0.171401,-0.985201,0
-42.0882,18.758,5.12865,0.171878,-0.985118,0
-34.8001,14.1196,4.99209,0.169448,-0.985539,0
-34.1221,13.2912,3.87686,0.169081,-0.985602,0
-36.7937,17.2218,7.67528,0.170109,-0.985425,0
-36.2835,19.4683,10.7672,0.169719,-0.985492,0
-35.9244,14.8758,4.13271,0.169973,-0.985449,0
-38.0519,16.7385,5.2804,0.170705,-0.985322,0
-37.3714,18.5532,8.32699,0.170194,-0.985411,0
-50.6088,25.8593,4.36826,0.172678,-0.984978,0
-40.4131,24.0655,14.4866,0.170897,-0.985289,0
-37.6126,22.7696,13.5189,0.169803,-0.985478,0
-35.8106,22.0067,15.3659,0.169269,-0.98557,0
-40.4548,26.2126,18.0541,0.17066,-0.98533,0
-41.4957,25.3416,18.9826,0.171147,-0.985245,0
-41.3991,27.0202,17.1665,0.170964,-0.985277,0
-42.44,26.1492,18.095,0.171411,-0.9852,0
-43.0879,19.67,10.056,0.172028,-0.985092,0
-45.7071,23.3676,11.9115,0.172328,-0.98504,0
-45.7037,21.0556,9.95063,0.172442,-0.98502,0
-47.777,22.6297,10.0399,0.17259,-0.984994,0
-50.743,21.3078,6.2425,0.172825,-0.984952,0
-49.9692,22.624,7.11,0.17277,-0.984962,0
-43.5127,16.8451,6.70064,0.172272,-0.985049,0
-46.2794,20.9777,8.41806,0.172489,-0.985011,0
-45.9199,18.6992,6.63593,0.172553,-0.985,0
-46.7257,18.8821,5.00955,0.172642,-0.984985,0
-46.9624,19.229,7.77069,0.172646,-0.984984,0
-42.2933,18.3294,8.43077,0.171947,-0.985106,0
-49.7107,22.5259,10.196,0.172774,-0.984961,0
-50.9303,23.2772,12.4048,0.172849,-0.984948,0
-50.0091,23.7577,11.328,0.172766,-0.984963,0
-39.583,19.04,13.0945,0.17127,-0.985224,0
-40.1011,22.0485,15.3053,0.171088,-0.985256,0
-42.6941,16.849,8.34419,0.172107,-0.985078,0
-41.2461,16.1247,8.31193,0.171848,-0.985123,0
-39.4579,13.6326,6.85027,0.171512,-0.985182,0
-46.4608,21.9469,10.8455,0.172478,-0.985013,0
-42.5145,22.021,14.3319,0.171874,-0.985119,0
-38.5214,16.7466,14.684,0.171227,-0.985232,0
-38.5285,19.9957,19.029,0.170983,-0.985274,0
-38.68,21.3228,18.0734,0.170795,-0.985307,0
-37.5337,20.9611,17.1262,0.170398,-0.985375,0
-37.3808,17.9182,15.1456,0.17075,-0.985314,0
-36.7346,13.2083,11.6645,0.170927,-0.985284,0
-35.6315,14.3967,12.0191,0.170345,-0.985384,0
-37.3822,19.634,18.0818,0.170547,-0.98535,0
-36.1047,15.2949,13.6024,0.170444,-0.985367,0
-34.6244,13.1737,12.2736,0.169898,-0.985462,0
-35.0976,14.0719,13.8569,0.170017,-0.985441,0
-35.8104,17.2784,14.1926,0.17015,-0.985418,0
-34.5728,17.1118,15.156,0.169571,-0.985518,0
-34.8536,23.2053,19.1226,0.168799,-0.985651,0
-34.6736,21.8277,18.1754,0.168984,-0.985619,0
-33.9954,24.1903,19.1226,0.167903,-0.985803,0
-34.5532,20.5626,19.0686,0.169163,-0.985588,0
-33.2752,20.2696,18.071,0.168383,-0.985722,0
-33.3955,21.5346,17.1778,0.168231,-0.985748,0
-31.0941,14.7284,11.5721,0.167413,-0.985887,0
-31.9676,13.6562,12.1099,0.168365,-0.985725,0
-33.6545,19.4581,15.2208,0.168658,-0.985675,0
-34.2413,18.4047,14.2786,0.169083,-0.985602,0
-33.1597,18.6076,14.2282,0.16825,-0.985744,0
-37.74,14.9738,14.1334,0.171074,-0.985258,0
-37.3525,14.0683,10.497,0.17101,-0.985269,0
-36.8087,13.7116,8.22546,0.170694,-0.985324,0
-37.3654,12.6655,9.24854,0.171131,-0.985248,0
-39.8063,25.0635,17.0985,0.17049,-0.985359,0
-44.1142,21.081,9.61766,0.172157,-0.985069,0
-47.3058,22.5798,8.31974,0.172541,-0.985002,0
-44.4822,19.5881,6.87986,0.172272,-0.985049,0
-44.6899,21.0031,8.08509,0.172241,-0.985055,0
-48.3096,22.3556,6.97725,0.17265,-0.984983,0
-39.1367,19.5894,11.4155,0.170925,-0.985284,0
-38.1968,19.4071,14.3873,0.170721,-0.985319,0
-37.0431,19.9161,13.5201,0.170181,-0.985413,0
-38.4067,20.9595,15.3914,0.170557,-0.985348,0
-37.2531,21.4685,14.5243,0.169952,-0.985452,0
-35.4788,18.5714,13.3152,0.169686,-0.985498,0
-33.0103,15.3234,8.8491,0.168547,-0.985694,0
-33.7821,16.7704,8.64357,0.168558,-0.985692,0
-32.9558,14.3392,7.36993,0.168458,-0.985709,0
-33.8588,14.2566,9.63513,0.169284,-0.985567,0
-33.8042,13.2724,8.15596,0.169272,-0.985569,0
-35.3471,13.0003,7.51144,0.170006,-0.985443,0
-35.2889,16.988,10.0297,0.169502,-0.98553,0
-35.1593,18.2791,11.4932,0.169252,-0.985573,0
-33.549,15.2574,5.68587,0.16845,-0.98571,0
-32.2887,17.004,9.71812,0.167582,-0.985858,0
-31.517,15.557,9.92366,0.16753,-0.985867,0
-30.9302,13.7804,6.27925,0.166837,-0.985985,0
-31.1459,13.7373,7.58055,0.167291,-0.985908,0
-32.7769,19.4948,13.0415,0.167708,-0.985837,0
-31.6958,17.4594,12.6539,0.167114,-0.985938,0
-30.7463,18.6986,14.7652,0.166321,-0.986072,0
-30.386,17.7365,13.5198,0.166045,-0.986118,0
-30.2534,14.8129,8.75657,0.166466,-0.986047,0
-29.2204,15.9924,8.22433,0.165214,-0.986258,0
-28.1388,15.3142,9.21658,0.16426,-0.986417,0
-27.5113,16.4784,10.3721,0.16294,-0.986636,0
-26.2049,15.8804,9.57681,0.161482,-0.986876,0
-26.7131,14.7403,6.92397,0.162912,-0.986641,0
-31.6088,27.1434,18.1619,0.164973,-0.986298,0
-31.0235,25.8575,19.0539,0.164931,-0.986305,0
-29.8382,26.3526,19.0539,0.163403,-0.986559,0
-30.2309,22.6402,15.0141,0.165167,-0.986266,0
-30.5166,21.4282,13.7931,0.165393,-0.986228,0
-29.5423,19.9027,14.4477,0.164916,-0.986308,0
-28.799,18.0811,12.5648,0.164096,-0.986444,0
-28.2381,19.2693,13.494,0.163252,-0.986584,0
-29.4392,14.0746,11.1584,0.166004,-0.986125,0
-29.1717,14.1347,9.74882,0.165577,-0.986197,0
-30.0767,15.9697,14.0054,0.166394,-0.986059,0
-31.3865,15.6925,13.1394,0.167335,-0.9859,0
-28.6516,16.1572,18.1447,0.164898,-0.986311,0
-29.8702,16.0228,17.1484,0.166316,-0.986072,0
-29.9184,15.1035,16.2825,0.166643,-0.986017,0
-30.5764,14.8582,17.3563,0.166878,-0.985977,0
-27.8704,14.5294,14.8963,0.165025,-0.986289,0
-29.9415,18.7105,17.9444,0.165662,-0.986183,0
-31.6365,20.4372,19.0182,0.167313,-0.985904,0
-31.2527,19.0513,19.0182,0.166903,-0.985973,0
-30.7813,17.7679,16.9481,0.166508,-0.98604,0
-33.2389,13.418,11.2475,0.169183,-0.985585,0
-34.0045,15.2804,14.398,0.169426,-0.985543,0
-34.3033,14.2338,15.548,0.169619,-0.98551,0
-35.3964,13.0254,15.0068,0.170155,-0.985417,0
-35.7549,13.7885,18.2494,0.170336,-0.985386,0
-36.8105,14.4381,19.0393,0.170812,-0.985304,0
-36.7964,12.7786,15.8741,0.170771,-0.985311,0
-36.7401,12.7885,17.4115,0.170785,-0.985308,0
-37.0696,16.0285,19.0393,0.170797,-0.985306,0
-40.4361,14.0938,16.8637,0.172012,-0.985095,0
-38.6998,12.297,19.1779,0.171672,-0.985154,0
-38.6982,14.24,16.7926,0.17151,-0.985182,0
-37.7957,13.4381,18.2014,0.171195,-0.985237,0
-37.4393,18.1434,17.1053,0.170719,-0.98532,0
-38.133,13.504,15.2552,0.171267,-0.985225,0
-39.2,12.3342,14.5246,0.171669,-0.985155,0
-40.1428,16.5246,17.6202,0.171783,-0.985135,0
-38.9767,12.3736,13.0681,0.171598,-0.985167,0
-43.3449,16.337,9.84112,0.172289,-0.985046,0
-50.8991,22.7443,8.60865,0.172811,-0.984955,0
-51.6952,21.5542,8.76451,0.172861,-0.984946,0
-47.4765,19.4029,10.9062,0.172719,-0.984971,0
-45.8001,22.0306,14.4483,0.1724,-0.985027,0
-45.3656,19.8586,11.9909,0.172458,-0.985017,0
-51.3757,20.813,12.2313,0.17291,-0.984938,0
-50.5068,21.3358,10.3519,0.172862,-0.984946,0
-52.2896,24.4642,12.209,0.172837,-0.984951,0
-44.6886,25.5631,15.5384,0.171962,-0.985104,0
-47.702,24.295,14.0645,0.172597,-0.984993,0
-45.8731,27.1843,17.147,0.17218,-0.985066,0
-45.7584,27.1227,15.4643,0.17207,-0.985085,0
-47.3906,27.2419,15.3975,0.172394,-0.985028,0
-48.1723,25.9838,14.888,0.172594,-0.984993,0
-52.3012,25.2448,9.73968,0.1728,-0.984957,0
-51.3402,26.4723,10.0556,0.172754,-0.984965,0
-48.6256,27.0505,13.5556,0.172607,-0.984991,0
-50.4074,26.1723,11.448,0.172731,-0.984969,0
-42.3979,29.426,19.1282,0.171288,-0.985221,0
-41.6341,29.959,18.1695,0.170902,-0.985288,0
-42.5219,30.4039,18.1695,0.171181,-0.98524,0
-51.7265,28.2574,8.94175,0.172705,-0.984974,0
-52.926,28.3825,6.37364,0.172735,-0.984968,0
-43.7009,30.344,15.3136,0.171425,-0.985197,0
-39.5707,29.8984,19.0873,0.16981,-0.985477,0
-39.6947,30.8762,18.1286,0.169637,-0.985507,0
-40.5178,29.9416,18.1286,0.170275,-0.985397,0
-38.6918,30.9261,17.1168,0.168924,-0.985629,0
-46.9832,29.8261,9.79554,0.172166,-0.985068,0
-44.197,31.8888,15.2457,0.171378,-0.985205,0
-52.3342,30.6825,3.85063,0.172637,-0.984986,0
-53.0619,29.3186,3.82494,0.172689,-0.984976,0
-48.1649,32.4787,8.87049,0.172135,-0.985073,0
-50.2254,36.27,3.9571,0.172231,-0.985057,0
-49.3891,37.7391,3.23774,0.172019,-0.985094,0
-47.2615,40.0765,3.99655,0.171366,-0.985207,0
-48.9067,35.2297,4.06447,0.172042,-0.98509,0
-48.4616,35.232,5.85068,0.172018,-0.985094,0
-53.7372,33.1749,3.20849,0.172579,-0.984996,0
-53.6035,32.4164,4.33435,0.172608,-0.984991,0
-50.1125,37.84,1.7748,0.172081,-0.985083,0
-46.5425,41.3733,2.89598,0.171032,-0.985265,0
-43.5236,44.4838,3.42735,0.169552,-0.985521,0
-44.3814,33.4043,11.8555,0.171109,-0.985252,0
-41.2821,34.6616,14.6926,0.169809,-0.985477,0
-38.5867,37.8516,15.2267,0.167738,-0.985832,0
-39.6635,33.5777,15.3393,0.168942,-0.985626,0
-38.4769,34.6508,15.0789,0.168093,-0.985771,0
-53.6048,31.7792,0.222662,0.172558,-0.984999,0
-52.4172,32.5781,1.03467,0.172522,-0.985006,0
-52.4152,33.2116,2.30081,0.172535,-0.985003,0
-51.457,30.5538,2.31759,0.17254,-0.985003,0
-51.4043,32.3244,1.89363,0.172473,-0.985014,0
-46.1998,38.8498,4.61445,0.171218,-0.985233,0
-48.0703,36.6988,3.34511,0.171779,-0.985136,0
-46.8104,37.2903,4.70071,0.171494,-0.985185,0
-42.0986,45.6094,4.08845,0.168548,-0.985693,0
-43.5835,42.8638,3.62055,0.169833,-0.985473,0
-40.7954,45.0207,4.642,0.167695,-0.985839,0
-48.1096,33.3082,6.06092,0.172012,-0.985095,0
-46.4135,33.0231,9.04588,0.171762,-0.985138,0
-45.1788,31.9825,8.79254,0.171453,-0.985192,0
-41.7009,34.9805,11.1742,0.170091,-0.985428,0
-40.7891,36.0726,11.9739,0.16946,-0.985537,0
-42.348,36.1537,10.384,0.170319,-0.985389,0
-41.4362,37.2458,11.1837,0.169756,-0.985486,0
-39.8463,49.9377,5.95863,0.166454,-0.986049,0
-34.9644,36.9491,17.8859,0.164147,-0.986436,0
-34.3057,38.3605,14.2144,0.162957,-0.986633,0
-34.8346,40.7591,11.9778,0.163064,-0.986615,0
-33.4752,33.6887,19.109,0.163089,-0.986611,0
-45.1223,38.3475,3.54009,0.170828,-0.985301,0
-45.7329,36.788,3.62635,0.171183,-0.985239,0
-43.9878,45.4118,0.455632,0.16971,-0.985494,0
-43.0542,44.4668,1.40742,0.16932,-0.985561,0
-42.8496,46.4639,0.081898,0.168855,-0.985641,0
-41.916,45.519,1.03369,0.168321,-0.985732,0
-41.5386,46.5809,2.47124,0.167967,-0.985793,0
-40.9126,43.2264,5.28804,0.16774,-0.985831,0
-42.2756,42.195,4.92769,0.169123,-0.985595,0
-37.5082,47.2342,5.21402,0.164551,-0.986369,0
-45.3618,40.8913,1.64586,0.170667,-0.985329,0
-49.0015,37.4771,0.262725,0.171831,-0.985127,0
-45.7535,35.2876,7.29879,0.171514,-0.985182,0
-46.3464,33.6206,7.31754,0.171656,-0.985157,0
-42.5352,39.2205,5.40402,0.169808,-0.985477,0
-44.42,35.0562,6.52322,0.171063,-0.98526,0
-39.99,37.8692,10.1759,0.16901,-0.985614,0
-37.8512,39.1404,14.2679,0.166535,-0.986036,0
-38.8847,31.8652,14.3606,0.16883,-0.985645,0
-36.0124,26.9756,11.0112,0.167802,-0.985821,0
-35.6747,27.1286,12.6828,0.167366,-0.985895,0
-40.2993,30.1801,8.08095,0.170038,-0.985437,0
-40.2934,32.0615,8.50735,0.169705,-0.985495,0
-38.6451,29.169,8.34828,0.169486,-0.985533,0
-37.6915,28.5386,6.71406,0.168951,-0.985624,0
-38.059,29.6034,9.70674,0.168721,-0.985664,0
-39.8728,32.7076,5.30159,0.169124,-0.985595,0
-40.2253,30.2125,6.43645,0.16996,-0.985451,0
-40.9395,31.8034,5.99143,0.169891,-0.985463,0
-38.6347,29.4813,5.5535,0.169192,-0.985583,0
-38.115,32.4972,4.74244,0.168152,-0.985761,0
-40.8316,32.9714,7.23385,0.169775,-0.985483,0
-39.7649,33.8756,6.544,0.168949,-0.985625,0
-44.237,32.231,3.7395,0.171167,-0.985242,0
-42.2761,33.6679,7.80937,0.170417,-0.985372,0
-44.2333,34.1524,3.17347,0.170912,-0.985286,0
-42.6208,31.3046,3.60596,0.170653,-0.985331,0
-42.4837,31.0983,5.10056,0.170577,-0.985344,0
-44.2075,31.1294,5.83527,0.171139,-0.985247,0
-45.1126,31.9875,5.07558,0.171356,-0.985209,0
-44.9142,34.0648,1.45531,0.171158,-0.985244,0
-43.3749,34.0458,0.552229,0.17057,-0.985346,0
-47.5178,32.6786,-0.154228,0.171909,-0.985113,0
-45.9751,31.8466,-0.115961,0.171617,-0.985164,0
-46.6646,35.5743,-0.202401,0.17142,-0.985198,0
-46.4569,34.8968,1.41704,0.171472,-0.985189,0
-47.3014,33.569,1.52834,0.171755,-0.98514,0
-45.7587,32.737,1.56661,0.17153,-0.985179,0
-47.2006,36.874,0.651309,0.171448,-0.985193,0
-46.9928,36.1965,2.27075,0.171471,-0.985189,0
-45.8217,38.2102,0.138898,0.170973,-0.985276,0
-43.1205,42.8038,0.401293,0.16954,-0.985523,0
-43.8168,41.9743,1.80112,0.169891,-0.985463,0
-45.0033,39.0922,1.67208,0.170621,-0.985337,0
-43.2693,39.1639,1.27718,0.169949,-0.985453,0
-42.555,40.8838,1.48888,0.16945,-0.985539,0
-41.8587,41.7133,0.0890458,0.168858,-0.98564,0
-36.8204,42.7624,0.554378,0.163579,-0.98653,0
-35.9158,41.0921,0.005598,0.163073,-0.986614,0
-36.5889,39.6546,0.230327,0.164621,-0.986357,0
-38.5303,42.8811,1.14384,0.165719,-0.986173,0
-34.796,35.5184,1.59367,0.164569,-0.986366,0
-37.4393,34.3869,1.0096,0.167333,-0.9859,0
-37.8014,32.5458,0.807534,0.167927,-0.985799,0
-35.5436,34.5245,0.638862,0.165891,-0.986144,0
-36.1671,31.4591,0.906909,0.166872,-0.985979,0
-36.1854,30.2214,2.06717,0.167285,-0.985909,0
-33.9859,25.7948,7.09702,0.166734,-0.986002,0
-35.863,25.7693,2.30002,0.168162,-0.985759,0
-36.0333,25.114,3.84153,0.168616,-0.985682,0
-32.5625,25.0842,6.79928,0.165332,-0.986238,0
-33.7003,27.0731,1.2068,0.165721,-0.986173,0
-34.9495,27.4738,2.14842,0.166861,-0.98598,0
-35.4021,23.3254,4.00168,0.168419,-0.985715,0
-34.6114,27.0864,5.83229,0.166921,-0.98597,0
-35.734,26.055,5.52064,0.168238,-0.985746,0
-35.1086,24.7635,6.78537,0.168018,-0.985784,0
-34.5411,23.2548,5.79525,0.167891,-0.985806,0
-33.0714,23.2883,6.15497,0.166155,-0.9861,0
-35.1955,25.3003,10.1117,0.167501,-0.985872,0
-32.4337,21.9469,6.88915,0.166028,-0.986121,0
-33.8852,18.9567,2.78622,0.168173,-0.985757,0
-32.3515,17.4344,0.849575,0.167148,-0.985932,0
-33.9007,18.0784,1.32874,0.168184,-0.985756,0
-40.1016,21.3785,0.647861,0.170913,-0.985286,0
-38.8226,20.3805,1.05713,0.170525,-0.985353,0
-41.5232,23.9769,2.95077,0.171177,-0.98524,0
-41.8299,24.7529,4.67624,0.171283,-0.985222,0
-39.1769,25.2002,5.33599,0.170372,-0.98538,0
-39.9745,23.822,2.5083,0.170706,-0.985322,0
-40.8232,25.7684,5.56835,0.170929,-0.985283,0
-38.6349,24.0297,4.00141,0.170174,-0.985414,0
-44.5319,23.9668,1.21476,0.171925,-0.98511,0
-40.7223,25.1386,0.0770788,0.170618,-0.985337,0
-39.5295,24.0522,0.510098,0.17037,-0.98538,0
-38.0197,24.9153,0.461706,0.169559,-0.98552,0
-36.5675,20.5692,3.3913,0.16933,-0.985559,0
-36.5069,21.775,4.47514,0.169188,-0.985584,0
-41.7354,22.4046,2.90901,0.171396,-0.985202,0
-40.1867,22.2497,2.46654,0.170924,-0.985284,0
-35.0776,19.9304,-0.421999,0.16851,-0.9857,0
-35.9288,21.3763,0.346484,0.168999,-0.985616,0
-32.6219,15.7136,0.0759095,0.167652,-0.985846,0
-31.1801,13.7067,0.583662,0.166878,-0.985978,0
-32.5172,18.301,4.07007,0.167336,-0.9859,0
-31.8093,19.2293,5.02953,0.166311,-0.986073,0
-35.0708,24.4173,1.44451,0.167782,-0.985824,0
-33.8636,19.6068,0.682274,0.167829,-0.985816,0
-33.5861,25.2376,1.03173,0.166239,-0.986086,0
-34.6274,22.9974,2.65335,0.167717,-0.985835,0
-32.7246,23.0441,2.92569,0.166035,-0.98612,0
-33.8481,20.4851,2.13975,0.167676,-0.985842,0
-35.4957,21.3783,2.04609,0.16843,-0.985714,0
-34.0885,27.997,9.00991,0.165883,-0.986145,0
-32.5293,25.3554,8.53242,0.164829,-0.986322,0
-33.9528,26.066,8.83016,0.166237,-0.986086,0
-36.2637,28.5228,1.2169,0.167465,-0.985878,0
-37.5555,25.9262,2.03289,0.169028,-0.985611,0
-37.809,27.5854,1.64646,0.168841,-0.985643,0
-37.082,35.7195,3.52231,0.166854,-0.985982,0
-35.6523,39.0351,7.07428,0.164204,-0.986426,0
-34.9927,37.3612,8.80326,0.164157,-0.986434,0
-35.5904,37.3696,7.28848,0.164667,-0.986349,0
-35.8344,36.3957,9.99056,0.16536,-0.986233,0
-36.3032,41.6069,8.82907,0.164788,-0.986329,0
-35.869,40.2035,10.8388,0.16462,-0.986357,0
-37.0642,44.2047,7.23591,0.164755,-0.986335,0
-38.0208,46.8381,3.59527,0.165038,-0.986287,0
-36.6801,45.8847,3.62022,0.163327,-0.986572,0
-38.5119,51.1474,-0.240883,0.163709,-0.986509,0
-37.5442,50.4326,1.20047,0.163266,-0.986582,0
-35.7162,34.0813,14.774,0.165542,-0.986203,0
-37.3412,34.0796,13.8706,0.167207,-0.985922,0
-34.2991,30.029,15.2356,0.165681,-0.986179,0
-33.8764,31.6661,15.5455,0.164782,-0.98633,0
-34.005,31.6672,17.2052,0.1647,-0.986344,0
-38.2192,42.681,7.04802,0.165939,-0.986136,0
-37.5879,39.7902,7.0478,0.165722,-0.986172,0
-37.9572,41.2,8.02311,0.165981,-0.986129,0
-35.7923,36.3158,3.12375,0.165334,-0.986238,0
-35.3054,35.7413,4.76492,0.164875,-0.986315,0
-36.2476,38.2879,3.04479,0.164795,-0.986328,0
-39.2261,49.2078,2.42321,0.165744,-0.986169,0
-39.5392,49.9944,-0.561902,0.165485,-0.986212,0
-40.3769,45.1237,0.479773,0.166954,-0.985965,0
-38.5969,47.6248,2.2378,0.16562,-0.98619,0
-37.9422,47.6966,0.694045,0.164765,-0.986333,0
-38.5714,49.2796,0.879455,0.164815,-0.986324,0
-40.0485,38.427,8.62479,0.168808,-0.985649,0
-36.5243,42.9091,4.79471,0.163745,-0.986503,0
-37.9821,42.0681,5.4158,0.165472,-0.986214,0
-37.1083,43.9121,3.37083,0.163832,-0.986488,0
-37.517,40.3932,5.39797,0.16534,-0.986237,0
-39.4437,42.5331,4.35356,0.166643,-0.986017,0
-38.8013,43.6608,2.92269,0.16565,-0.986185,0
-38.0843,38.5515,3.32951,0.166615,-0.986022,0
-38.8859,39.518,4.76347,0.166672,-0.986012,0
-39.9926,40.8482,4.03548,0.167503,-0.985872,0
-39.5298,43.5573,0.0583918,0.166487,-0.986044,0
-39.0019,38.8705,2.05135,0.167324,-0.985902,0
-40.2182,42.0079,-0.130126,0.16749,-0.985874,0
-42.4486,38.5534,2.51877,0.16964,-0.985506,0
-41.7344,40.2733,2.73047,0.168946,-0.985625,0
-40.0386,40.4266,2.41609,0.167679,-0.985842,0
-38.182,39.7756,0.590589,0.166486,-0.986044,0
-39.2187,41.3317,0.955322,0.166844,-0.985983,0
-46.2291,30.1233,0.45343,0.17178,-0.985135,0
-48.8921,31.8758,0.152704,0.172153,-0.98507,0
-48.0483,29.8358,0.014567,0.172115,-0.985077,0
-42.8024,26.1884,4.25508,0.171335,-0.985213,0
-37.7258,25.271,3.5744,0.169396,-0.985548,0
-38.8763,28.617,2.68487,0.169194,-0.985583,0
-47.1657,28.4762,3.57323,0.172159,-0.985069,0
-47.8875,28.9759,4.2918,0.172231,-0.985057,0
-46.4459,29.1712,4.52362,0.172004,-0.985096,0
-44.161,26.6928,2.03088,0.171537,-0.985178,0
-41.1648,29.8737,1.36225,0.170175,-0.985414,0
-44.1044,28.6964,1.50561,0.171352,-0.98521,0
-42.5573,29.6297,2.28339,0.170708,-0.985322,0
-41.5917,30.0597,-0.210769,0.170216,-0.985407,0
-42.6019,26.5096,2.56805,0.171174,-0.985241,0
-43.6016,25.2668,1.02473,0.171522,-0.98518,0
-42.0425,25.0835,1.56189,0.171123,-0.98525,0
-41.6971,28.2384,2.64414,0.170592,-0.985342,0
-40.3046,28.4824,1.72301,0.169891,-0.985463,0
-44.2766,28.5261,-0.236707,0.171314,-0.985216,0
-46.9939,28.6801,2.40429,0.172101,-0.985079,0
-48.6594,29.1358,1.34792,0.172271,-0.98505,0
-46.8699,27.418,3.23404,0.17216,-0.985069,0
-45.3985,29.6187,2.0186,0.171705,-0.985148,0
-49.1471,27.5198,0.801783,0.172469,-0.985015,0
-39.7691,37.1387,1.54892,0.168235,-0.985747,0
-40.4919,33.3786,3.62504,0.169194,-0.985583,0
-38.6992,31.971,1.95752,0.168599,-0.985685,0
-41.1198,31.7645,-0.0287302,0.169767,-0.985484,0
-41.6957,32.6807,2.82029,0.169982,-0.985447,0
-41.9251,36.6796,-0.00525821,0.169638,-0.985506,0
-39.3184,35.9499,2.64066,0.168153,-0.985761,0
-40.693,31.5785,1.54429,0.169631,-0.985508,0
-42.694,34.1334,2.27039,0.170319,-0.985389,0
-41.52,36.9749,1.70196,0.169331,-0.985559,0
-42.0372,35.6911,2.96131,0.169741,-0.985489,0
-40.6832,35.2109,3.71458,0.169029,-0.985611,0
-37.9815,34.7846,2.36297,0.16771,-0.985836,0
-38.7341,33.1681,3.0659,0.168414,-0.985716,0
-41.6884,40.6949,4.34986,0.168845,-0.985643,0
-38.9567,38.915,6.4133,0.167035,-0.985951,0
-38.4189,36.8848,3.8,0.167373,-0.985894,0
-39.6714,38.2407,7.26591,0.16815,-0.985761,0
-40.4984,35.4715,5.72654,0.168948,-0.985625,0
-39.0636,36.4363,5.74534,0.167777,-0.985825,0
-40.8593,38.2231,7.33162,0.169174,-0.985586,0
-38.7998,37.5,6.92468,0.167412,-0.985887,0
-45.4676,31.4784,2.92991,0.171546,-0.985176,0
-46.3433,31.2349,4.26599,0.171739,-0.985142,0
-44.516,35.5759,4.49081,0.170842,-0.985298,0
-41.9412,37.3383,7.31654,0.169852,-0.98547,0
-41.985,36.1971,6.23912,0.169878,-0.985465,0
-43.4845,38.0902,4.12309,0.170121,-0.985423,0
-43.0912,36.4818,4.44681,0.170146,-0.985419,0
-37.7428,30.4007,2.73733,0.168182,-0.985756,0
-37.2645,30.2169,5.16731,0.168058,-0.985777,0
-34.3542,29.0217,7.68008,0.165933,-0.986137,0
-34.5446,28.5276,3.61665,0.165886,-0.986145,0
-35.1037,30.4682,3.40199,0.16633,-0.98607,0
-36.3213,29.2742,6.32786,0.167649,-0.985847,0
-36.6611,30.6475,4.07216,0.167554,-0.985863,0
-35.8316,29.9137,7.77234,0.166773,-0.985995,0
-34.8439,28.3822,6.2356,0.166604,-0.986024,0
-35.759,32.5889,5.90712,0.166441,-0.986051,0
-35.5353,31.8985,7.55003,0.166002,-0.986125,0
-34.0824,28.0514,5.10156,0.165798,-0.98616,0
-36.9985,31.5468,4.96889,0.167552,-0.985863,0
-36.5951,35.1451,5.16348,0.166587,-0.986027,0
-37.9132,34.0401,7.11124,0.167778,-0.985825,0
-37.2239,33.9299,8.85269,0.167449,-0.985881,0
-37.369,36.7097,7.77337,0.166581,-0.986028,0
-37.6327,35.646,6.59404,0.167181,-0.985926,0
-35.9626,32.7386,9.06503,0.166258,-0.986082,0
-36.8755,33.5392,5.68068,0.16724,-0.985916,0
-37.1467,35.7297,9.3284,0.166861,-0.985981,0
-41.0463,28.3225,4.41174,0.170469,-0.985363,0
-38.2678,26.4414,4.90898,0.169696,-0.985497,0
-42.5188,28.3888,6.28103,0.171059,-0.985261,0
-39.1648,28.1282,4.40588,0.169638,-0.985506,0
-37.3367,26.6152,6.31015,0.16923,-0.985577,0
-41.7957,27.2038,5.14719,0.170948,-0.98528,0
-41.7695,29.5074,5.54558,0.170516,-0.985355,0
-38.5374,32.8555,9.55895,0.168603,-0.985684,0
-37.9573,31.4085,10.491,0.168271,-0.985741,0
-34.8837,32.8679,14.3334,0.165165,-0.986266,0
-35.8993,31.7417,13.3658,0.166456,-0.986049,0
-35.6632,30.0896,14.2532,0.166637,-0.986018,0
-35.3219,31.3893,11.7834,0.165932,-0.986137,0
-34.7172,28.7581,12.9757,0.166182,-0.986095,0
-34.6289,29.5246,11.5983,0.165791,-0.986161,0
-36.5141,31.4175,10.3013,0.166964,-0.985963,0
-35.42,28.3735,10.3696,0.166717,-0.986005,0
-36.6157,29.6124,9.517,0.167294,-0.985907,0
-41.7378,32.758,9.08287,0.170187,-0.985412,0
-39.001,33.4645,10.8906,0.168819,-0.985647,0
-40.9482,33.5352,10.4282,0.16986,-0.985468,0
-38.3076,35.5331,10.6288,0.167961,-0.985794,0
-38.4209,32.0175,11.8226,0.168611,-0.985683,0
-37.555,32.3789,13.2153,0.167776,-0.985825,0
-52.8794,28.2838,2.56467,0.17269,-0.984976,0
-49.4788,30.0294,5.38598,0.172457,-0.985017,0
-33.3445,20.5858,7.30609,0.167215,-0.985921,0
-38.0015,27.062,11.4948,0.169244,-0.985574,0
-38.8389,25.8005,10.8043,0.169989,-0.985446,0
-38.8525,28.4509,11.043,0.169573,-0.985518,0
-41.6259,26.8507,9.89958,0.170993,-0.985272,0
-41.5506,28.359,10.0601,0.170689,-0.985325,0
-39.5139,26.5083,9.52404,0.170272,-0.985397,0
-39.4385,28.0165,9.68456,0.170005,-0.985443,0
-42.0103,29.3433,8.71005,0.170736,-0.985317,0
-42.6856,28.2571,7.801,0.171172,-0.985241,0
-38.3656,25.7374,7.78386,0.169968,-0.98545,0
-42.1239,26.6482,8.39176,0.171232,-0.985231,0
-38.0471,22.3224,4.742,0.170081,-0.98543,0
-40.9846,25.3444,7.29295,0.171006,-0.98527,0
-39.3383,24.7762,7.06059,0.170443,-0.985367,0
-39.1442,21.3204,3.95653,0.170623,-0.985336,0
-38.2783,20.3317,2.93849,0.170265,-0.985398,0
-45.8081,24.7242,2.59594,0.17215,-0.985071,0
-45.5192,27.796,7.21762,0.171957,-0.985104,0
-52.1537,29.0142,1.32422,0.172623,-0.984988,0
-53.115,29.0016,-0.0825257,0.172612,-0.98499,0
-50.9622,27.5341,0.812091,0.172598,-0.984992,0
-45.3524,27.9277,5.69766,0.171809,-0.98513,0
-48.5322,28.2715,5.55123,0.172383,-0.98503,0
-47.7952,24.1966,1.32426,0.172479,-0.985013,0
-48.7597,25.6302,1.87013,0.172516,-0.985007,0
-48.1479,25.984,3.24602,0.172393,-0.985028,0
-45.3311,26.353,3.37362,0.17192,-0.985111,0
-44.5333,26.1677,4.88685,0.171793,-0.985133,0
-44.5114,29.0016,7.71969,0.171567,-0.985173,0
-44.3446,29.1333,6.19973,0.171393,-0.985203,0
-42.9231,30.1651,10.1945,0.170944,-0.985281,0
-39.7505,31.5038,12.9679,0.169408,-0.985546,0
-40.6399,30.7667,13.0298,0.170024,-0.98544,0
-38.6661,30.3417,15.2424,0.168944,-0.985626,0
-32.3542,14.4998,0.979122,0.167506,-0.985871,0
-31.5669,14.6613,1.58346,0.16688,-0.985977,0
-34.6245,24.9501,14.2249,0.167393,-0.98589,0
-38.6476,27.3269,13.4547,0.169399,-0.985548,0
-43.3242,20.8628,0.88167,0.171923,-0.98511,0
-43.185,22.2112,1.71016,0.171832,-0.985126,0
-38.3609,18.4148,3.22761,0.17052,-0.985354,0
-39.107,17.5122,1.80617,0.170862,-0.985295,0
-36.2778,16.738,4.62336,0.169942,-0.985454,0
-35.2072,14.0544,2.06107,0.169898,-0.985462,0
-36.5717,16.7758,0.289554,0.169857,-0.985469,0
-36.5262,17.5604,3.31122,0.169791,-0.98548,0
-35.631,17.0546,1.5242,0.169417,-0.985545,0
-33.2446,14.7069,0.751989,0.168418,-0.985716,0
-39.6128,18.5377,0.654227,0.170918,-0.985285,0
-46.541,23.7549,3.40183,0.172318,-0.985041,0
-36.0906,20.4446,8.25805,0.169346,-0.985557,0
-36.1551,22.4379,10.7696,0.168883,-0.985636,0
-38.184,21.8225,6.64367,0.170218,-0.985406,0
-35.5071,18.6161,6.50177,0.169121,-0.985595,0
-35.5769,18.9097,3.71109,0.169131,-0.985594,0
-35.3285,18.0874,5.02324,0.16915,-0.98559,0
-35.087,20.3768,7.04537,0.168635,-0.985679,0
-33.9026,17.8917,6.7049,0.168335,-0.98573,0
-33.724,17.363,5.22637,0.168318,-0.985733,0
-32.6451,18.9918,6.73419,0.16715,-0.985932,0
-31.8607,23.2436,15.4347,0.166499,-0.986042,0
-27.7702,20.1619,11.8996,0.16217,-0.986763,0
-28.3312,18.9736,10.9704,0.163047,-0.986618,0
-27.3886,18.3019,10.0574,0.162267,-0.986747,0
-28.4776,21.5763,11.6526,0.162453,-0.986716,0
-29.634,23.4212,13.8134,0.16347,-0.986548,0
-29.9197,22.2092,12.5924,0.164195,-0.986428,0
-22.9713,16.8062,7.7314,0.155679,-0.987808,0
-24.4488,17.3603,7.76463,0.158202,-0.987407,0
-23.0796,15.8128,6.31857,0.156456,-0.987685,0
-30.4234,27.6385,18.1619,0.163037,-0.98662,0
-26.8323,14.7162,8.42125,0.162885,-0.986645,0
-25.5948,18.7938,9.77332,0.159402,-0.987214,0
-24.8254,19.8939,10.997,0.157329,-0.987546,0
-25.8672,26.446,18.0094,0.155578,-0.987824,0
-26.7637,26.3156,18.0094,0.158037,-0.987433,0
-26.5596,27.2061,19.0043,0.156569,-0.987667,0
-24.8097,22.5266,14.8945,0.155318,-0.987865,0
-24.5196,21.0534,14.8898,0.156065,-0.987747,0
-29.4226,21.8557,16.7425,0.164793,-0.986328,0
-29.9243,22.5234,18.0563,0.165442,-0.98622,0
-25.4917,15.1037,11.9756,0.161552,-0.986864,0
-27.1812,15.6057,11.917,0.163284,-0.986579,0
-28.4213,15.3124,13.4507,0.165016,-0.986291,0
-27.3225,18.4283,17.9424,0.162418,-0.986722,0
-26.5337,19.3596,19.0163,0.160628,-0.987015,0
-26.5484,20.4293,17.7025,0.160496,-0.987036,0
-27.3372,19.498,16.6287,0.162283,-0.986744,0
-25.2907,18.7469,19.0163,0.158606,-0.987342,0
-25.5567,16.163,15.483,0.162074,-0.986779,0
-22.922,15.838,14.2641,0.158396,-0.987376,0
-24.2299,15.4752,14.3726,0.160387,-0.987054,0
-24.8117,16.3507,13.3296,0.160516,-0.987033,0
-23.9409,19.9968,18.0758,0.155349,-0.98786,0
-21.4508,17.2411,14.9866,0.153879,-0.98809,0
-22.2406,16.0463,15.6217,0.156451,-0.987686,0
-22.3395,17.7373,18.1896,0.15457,-0.987982,0
-23.1211,16.6706,17.2813,0.156874,-0.987619,0
-19.0849,16.7827,18.338,0.148825,-0.988864,0
-27.4725,14.4972,19.2185,0.164038,-0.986454,0
-29.7715,14.0038,18.3526,0.166474,-0.986046,0
-33.0206,16.8275,19.0195,0.168577,-0.985688,0
