34.6647,34.2043,-5.56592,-0.741766,-0.670658,0
3.65124,30.3882,-8.51725,-0.15481,-0.987944,0
-23.7324,43.5033,23.5884,0.332731,-0.943022,0
30.5789,29.8744,17.8161,-0.536919,-0.843634,0
-20.2499,44.1594,-40.7526,0.0401571,-0.999193,0
-31.2285,39.2247,-41.8234,-0.0462273,-0.998931,0
-12.8018,30.4218,23.2719,-0.0475235,-0.99887,0
0.168516,29.3658,7.91915,-0.13141,-0.991328,0
-34.9782,29.7467,-29.5372,0.161175,-0.986926,0
35.9965,20.5342,-1.03172,-0.511673,-0.85918,0
11.1671,46.4756,13.7833,0.27591,-0.961183,0
35.4362,25.3637,4.64082,-0.506859,-0.862029,0
-15.2578,39.7695,-22.8696,0.18995,-0.981794,0
-24.1016,43.0025,13.8343,0.333678,-0.942687,0
14.8854,25.015,-8.00397,-0.106583,-0.994304,0
-23.3577,29.1515,-22.2695,0.0775315,-0.99699,0
-9.69245,48.544,29.2923,0.357373,-0.933962,0
-1.90347,53.4222,-26.2149,0.285289,-0.958442,0
-9.10939,50.2956,22.742,0.361232,-0.932476,0
17.8391,42.2497,16.0722,-0.325488,-0.945546,0
-14.175,47.6345,-39.5372,0.360964,-0.93258,0
40.6664,29.5797,8.54962,-0.73231,-0.680971,0
-9.43535,43.314,-29.4598,0.290544,-0.956862,0
41.4216,29.6458,8.47415,-0.733901,-0.679256,0
11.9412,29.7062,2.46774,-0.140456,-0.990087,0
29.255,40.4961,19.9035,-0.623979,-0.781441,0
-29.3345,38.7533,12.5234,0.263956,-0.964535,0
20.2155,43.193,20.6254,-0.368997,-0.929431,0
17.7637,52.095,16.2681,0.00873867,-0.999962,0
-25.5457,27.7107,-25.8888,0.108439,-0.994103,0
-27.5296,27.5783,-24.5065,0.111878,-0.993722,0
18.6239,28.4555,11.1519,-0.106623,-0.9943,0
-30.0222,32.3967,27.5082,0.109709,-0.993964,0
0.238652,34.2258,-26.4367,0.159656,-0.987173,0
-16.4269,38.2044,-25.4361,0.16131,-0.986904,0
-26.1485,30.5989,10.2133,0.12106,-0.992645,0
30.4402,21.8756,10.2774,-0.357341,-0.933974,0
9.0958,46.5531,22.6503,0.415019,-0.909813,0
11.2514,49.9231,15.232,0.283671,-0.958922,0
8.85935,26.0113,3.14539,-0.144947,-0.989439,0
-13.7648,42.3154,-38.6587,0.267713,-0.963499,0
-10.4811,31.2329,6.8243,-0.0653391,-0.997863,0
21.0499,38.5181,15.2788,-0.551895,-0.833914,0
17.8545,26.6764,18.9431,-0.0516606,-0.998665,0
-17.2418,41.6675,31.568,0.287877,-0.957667,0
-32.009,38.3597,17.0467,0.252265,-0.967658,0
-10.5908,37.2608,-29.1458,0.115456,-0.993313,0
-25.8013,40.7927,-42.36,-0.112657,-0.993634,0
36.3751,13.068,14.3799,-0.444136,-0.895959,0
-6.69341,34.1128,-18.5754,-0.0520107,-0.998647,0
-2.56528,34.8664,-25.2254,0.091178,-0.995835,0
34.1315,38.2498,18.2486,-0.71347,-0.700686,0
16.2849,46.1647,-16.1974,-0.0586135,-0.998281,0
29.8997,28.522,8.21202,-0.414564,-0.91002,0
27.2726,41.0556,-11.9199,-0.716925,-0.697151,0
-7.27955,28.6032,21.6278,-0.046536,-0.998917,0
17.9473,48.915,-14.228,-0.412052,-0.91116,0
9.0054,55.9805,18.9058,0.341376,-0.939927,0
-15.6527,30.4467,11.063,-0.0258597,-0.999666,0
23.0576,40.5134,12.4792,-0.550739,-0.834677,0
36.0502,21.1234,-1.14562,-0.510055,-0.860142,0
-3.53433,29.7097,-11.0788,-0.162065,-0.98678,0
-23.0968,43.4097,11.145,0.336143,-0.941811,0
-16.1873,30.5537,29.6894,-0.046036,-0.99894,0
-16.7197,30.5521,-28.5089,-0.0127486,-0.999919,0
-14.1072,41.2176,14.9373,0.240276,-0.970705,0
-16.6707,44.6268,-36.9255,0.298497,-0.954411,0
-12.8654,48.0185,27.6886,0.369184,-0.929356,0
-32.6669,37.1515,13.7225,0.244344,-0.969689,0
-19.7257,41.1126,9.82535,0.294117,-0.955769,0
-27.963,38.8475,24.8335,0.23637,-0.971663,0
45.7834,17.5441,8.2951,-0.515048,-0.857162,0
10.47,55.5297,17.592,0.312331,-0.949973,0
17.5731,25.6537,19.0585,-0.0596259,-0.998221,0
13.024,44.0345,-18.8001,0.613687,-0.789549,0
44.8429,16.7054,6.77213,-0.505166,-0.863022,0
-36.0645,31.6343,17.8953,0.204012,-0.978968,0
-15.6861,30.3104,-19.2526,-0.00930117,-0.999957,0
-20.7937,43.9948,-32.0679,0.334711,-0.942321,0
27.1559,28.7183,-0.449841,-0.187023,-0.982356,0
-8.52712,47.1676,22.8351,0.350061,-0.936727,0
-32.2445,34.8584,25.6554,0.169722,-0.985492,0
11.1962,29.4317,-4.93343,-0.125837,-0.992051,0
-18.5178,39.3186,-38.0564,0.125193,-0.992132,0
11.7703,46.6773,14.1406,0.244954,-0.969535,0
27.1391,24.3992,5.11601,-0.290552,-0.956859,0
-28.7436,29.1986,-22.7143,0.12129,-0.992617,0
5.84317,44.5987,-22.29,0.50604,-0.86251,0
-12.1564,29.4708,24.0283,-0.0413583,-0.999144,0
-1.61079,28.7712,-21.0907,-0.030028,-0.999549,0
-15.134,30.7507,30.4708,-0.0385639,-0.999256,0
30.3714,28.8512,8.00415,-0.430789,-0.902453,0
-3.20717,44.3999,-26.2331,0.430549,-0.902567,0
33.7164,20.5258,-1.79878,-0.46386,-0.885909,0
-16.2583,34.9192,-31.748,0.0701859,-0.997534,0
13.1271,51.3506,14.2543,0.215375,-0.976531,0
17.6077,24.483,13.5665,-0.112914,-0.993605,0
-0.378534,34.6371,-27.843,0.12036,-0.99273,0
-14.6401,42.806,-39.7719,0.247207,-0.968963,0
-10.0138,42.891,-24.5654,0.268895,-0.96317,0
-21.897,36.353,16.3236,0.152103,-0.988365,0
-0.720532,42.7811,18.48,0.402901,-0.915243,0
25.3379,38.593,16.5467,-0.559784,-0.828639,0
38.9965,17.8209,2.10329,-0.514943,-0.857224,0
35.4085,21.6442,-4.61024,-0.526555,-0.850141,0
-2.22154,27.8591,10.9715,-0.121778,-0.992557,0
-6.66043,34.8455,-32.7774,0.062022,-0.998075,0
33.4628,37.3112,15.595,-0.722168,-0.691718,0
17.3164,50.24,17.6346,-0.0202516,-0.999795,0
-10.5918,40.6112,11.6383,0.180431,-0.983588,0
-7.60958,35.2547,-32.0318,0.0707441,-0.997494,0
22.6946,48.5441,-13.3732,-0.598849,-0.800862,0
7.76921,40.6582,-23.5355,0.649591,-0.760284,0
-27.4862,40.3819,-28.1929,0.286959,-0.957943,0
6.34989,46.6281,23.1418,0.440835,-0.897588,0
36.6388,27.5419,-5.96219,-0.694503,-0.71949,0
9.93505,49.5005,-18.4073,0.175118,-0.984547,0
-7.01873,40.1973,25.6524,0.205315,-0.978696,0
6.01519,36.3205,-22.5793,0.613964,-0.789334,0
-8.21217,40.3397,-25.2747,0.15366,-0.988124,0
-10.1894,38.3402,-23.8831,0.0981729,-0.995169,0
-5.21238,33.4467,-26.45,0.0362309,-0.999343,0
-37.7849,35.5826,-31.4379,0.1681,-0.98577,0
12.7834,27.2553,11.7964,-0.115605,-0.993295,0
3.91812,37.9589,-25.5273,0.522614,-0.852569,0
-9.13361,41.8876,12.4823,0.238817,-0.971065,0
6.597,52.2651,-24.8188,0.128809,-0.991669,0
-11.0883,32.4703,-31.3001,0.0363424,-0.999339,0
-9.8647,40.0254,15.3528,0.181113,-0.983462,0
27.5444,28.8822,8.48812,-0.33774,-0.941239,0
-3.82233,49.0913,13.7627,0.349876,-0.936796,0
8.26912,27.5386,20.3284,-0.110088,-0.993922,0
23.051,28.7365,13.5402,-0.158416,-0.987372,0
-6.05391,30.646,8.54095,-0.0975815,-0.995228,0
-25.3642,33.1766,-19.5365,0.0976433,-0.995221,0
-5.62105,42.9337,25.0883,0.293907,-0.955834,0
12.2544,44.9348,16.9809,0.267162,-0.963652,0
5.67839,39.563,16.807,0.628299,-0.777972,0
6.29129,56.0618,18.5955,0.350835,-0.936437,0
-23.1225,43.8124,24.5393,0.331573,-0.94343,0
5.846,42.3867,20.7664,0.569367,-0.822083,0
-6.81033,29.3431,-11.8487,-0.147882,-0.989005,0
-34.1382,29.681,-31.4269,0.132424,-0.991193,0
5.11011,47.2473,23.5106,0.418771,-0.908092,0
-28.2696,28.479,-22.6609,0.113045,-0.99359,0
20.5497,31.6732,13.2125,-0.0430599,-0.999072,0
-28.133,29.5172,29.6942,0.0353909,-0.999374,0
1.44073,48.4412,-25.9986,0.244006,-0.969774,0
-22.8708,30.3244,26.7831,-0.0141386,-0.9999,0
3.03656,42.368,16.0687,0.534608,-0.8451,0
30.4444,29.3397,8.63887,-0.45603,-0.889965,0
-32.4698,38.3763,11.2268,0.263113,-0.964765,0
37.1063,19.2749,0.214306,-0.518064,-0.855342,0
-12.138,32.2944,28.8386,-0.0205333,-0.999789,0
8.64108,55.8213,20.0696,0.342295,-0.939593,0
40.7581,21.2905,-3.58201,-0.665647,-0.746267,0
0.844692,32.785,24.3195,0.0491588,-0.998791,0
15.0751,27.8923,3.43693,-0.143654,-0.989628,0
-10.1597,49.7965,26.2189,0.361253,-0.932468,0
34.6957,16.8743,-0.591299,-0.480884,-0.876784,0
8.86415,47.0839,14.2517,0.38609,-0.922461,0
-2.95447,47.7331,-31.8172,0.377741,-0.925911,0
40.1171,21.0078,-3.09595,-0.639439,-0.768841,0
-3.18722,29.4256,-12.5848,-0.158027,-0.987435,0
-33.9172,32.0091,-30.9748,0.153877,-0.98809,0
-1.85105,28.045,-12.0776,-0.161884,-0.98681,0
6.8908,55.5931,16.0597,0.353681,-0.935366,0
-23.0864,35.7032,7.38955,0.141011,-0.990008,0
-8.6143,41.0796,13.0973,0.20796,-0.978137,0
27.991,40.9593,20.0937,-0.608194,-0.793789,0
-7.11961,39.3608,13.996,0.158704,-0.987326,0
46.5584,20.7004,1.73012,-0.587211,-0.809434,0
-6.1102,35.7713,-32.2364,0.0716592,-0.997429,0
-30.163,32.76,-23.8752,0.171046,-0.985263,0
40.0355,28.5807,5.47644,-0.66001,-0.751256,0
-8.95537,39.9782,27.558,0.194185,-0.980965,0
-21.3123,43.9919,29.7827,0.300667,-0.953729,0
-20.1219,45.3069,27.9802,0.339988,-0.94043,0
21.3963,29.9729,8.5065,-0.165722,-0.986173,0
17.6014,30.5094,7.79977,-0.132783,-0.991145,0
35.0964,16.3261,11.6181,-0.450216,-0.89292,0
10.7782,47.3824,22.046,0.349389,-0.936978,0
21.2938,39.3133,18.5455,-0.540484,-0.841354,0
-6.62171,50.7079,-23.0669,0.369272,-0.929321,0
10.3039,50.2243,-22.8003,0.127445,-0.991846,0
-12.6694,33.5313,6.61556,-0.0401396,-0.999194,0
-24.7468,34.5114,7.71713,0.147212,-0.989105,0
22.3989,28.7637,6.96,-0.202375,-0.979308,0
-16.8844,30.1736,18.7697,-0.0799996,-0.996795,0
-17.2061,30.7532,18.1865,-0.0741373,-0.997248,0
14.5644,25.6542,17.6862,-0.0812535,-0.996693,0
-24.5502,39.9544,22.5878,0.283826,-0.958876,0
-10.8959,30.2216,-23.5331,-0.0126499,-0.99992,0
43.2453,20.3093,12.6504,-0.583984,-0.811765,0
5.49772,39.9683,-25.4736,0.630034,-0.776567,0
-16.4477,30.0255,17.6778,-0.0678176,-0.997698,0
-12.565,49.7501,18.5724,0.375929,-0.926648,0
7.91025,39.0535,-24.0584,0.65967,-0.751555,0
-33.357,33.055,15.0922,0.209724,-0.977761,0
-7.73919,34.6002,-31.8204,0.0622784,-0.998059,0
-30.5551,32.7926,17.6878,0.187303,-0.982302,0
-17.7357,42.9274,28.8295,0.30639,-0.951906,0
-9.18161,30.7285,20.7763,-0.032186,-0.999482,0
42.3202,28.4044,1.34087,-0.703321,-0.710873,0
-0.932675,35.3533,-20.2432,0.229048,-0.973415,0
-8.2512,35.2281,-32.8965,0.0730748,-0.997326,0
-21.0386,31.0348,-37.4521,0.012829,-0.999918,0
27.0004,44.4646,18.8226,-0.561085,-0.827758,0
-6.18044,35.7011,-31.1151,0.0692721,-0.997598,0
-30.0827,33.744,27.7491,0.132477,-0.991186,0
-0.634972,37.5143,-25.8261,0.163712,-0.986508,0
15.2104,26.8903,19.1579,-0.0651907,-0.997873,0
0.816908,34.5044,-27.641,0.155972,-0.987761,0
22.8228,42.9936,-17.0678,-0.61625,-0.787551,0
-5.78041,34.5835,-31.5046,0.0521138,-0.998641,0
6.53936,28.4004,6.59743,-0.14365,-0.989628,0
-18.6643,46.2107,25.8381,0.3665,-0.930418,0
47.0951,15.7169,7.86612,-0.510823,-0.859686,0
-6.97767,35.3161,-32.4244,0.0709416,-0.99748,0
18.2404,47.5037,21.2999,-0.109141,-0.994026,0
-33.9477,34.5788,-32.5573,0.133705,-0.991021,0
29.5531,25.3215,10.2401,-0.380513,-0.924776,0
-21.0287,33.2286,32.0248,0.00424893,-0.999991,0
8.61539,38.9962,-21.9979,0.670882,-0.741564,0
-3.33911,47.4413,-31.0296,0.383973,-0.923344,0
-7.44886,37.7469,15.259,0.118556,-0.992947,0
-4.86876,39.008,19.1884,0.222578,-0.974915,0
30.9116,33.931,16.9092,-0.631187,-0.775631,0
-9.11623,42.3241,27.8455,0.277007,-0.960868,0
-3.89952,30.4081,20.7188,-0.0453152,-0.998973,0
-11.1458,45.3399,-32.3199,0.358001,-0.933721,0
18.4327,24.9885,17.2206,-0.0788599,-0.996886,0
-16.2327,47.178,21.2126,0.379032,-0.925384,0
-33.7755,33.8092,-34.1961,0.0817326,-0.996654,0
-16.8368,43.6349,17.114,0.339944,-0.940446,0
-15.6119,46.8806,13.8509,0.367156,-0.930159,0
8.24871,49.0172,21.6356,0.383906,-0.923372,0
-28.0365,35.775,12.0362,0.214163,-0.976798,0
-29.3936,26.4701,17.2781,0.11819,-0.992991,0
10.942,27.5349,3.73184,-0.142213,-0.989836,0
0.237576,35.495,-19.4806,0.31314,-0.949707,0
-33.7536,32.5259,15.5005,0.206682,-0.978408,0
-16.659,30.4405,18.4457,-0.0755439,-0.997142,0
24.1503,40.269,-13.7716,-0.708492,-0.705719,0
6.4917,27.2639,-11.7657,-0.133617,-0.991033,0
-2.53826,50.0374,21.8904,0.338054,-0.941127,0
-6.53415,45.5829,-26.0797,0.365641,-0.930756,0
-23.1502,40.7613,-29.3822,0.309414,-0.950928,0
-21.8143,30.589,6.63045,0.048785,-0.998809,0
-10.5894,48.6665,-28.3378,0.387182,-0.922003,0
-18.5875,41.8781,32.4957,0.285496,-0.95838,0
38.9825,12.8305,12.3125,-0.453532,-0.89124,0
27.2178,30.3117,17.7201,-0.392105,-0.91992,0
3.34188,53.3596,21.2523,0.337329,-0.941387,0
6.98705,49.2018,21.9419,0.390962,-0.920407,0
-1.70322,52.9427,21.5098,0.325902,-0.945404,0
-28.8597,29.8422,-30.0024,0.139638,-0.990203,0
22.7393,48.4983,-14.0687,-0.597725,-0.801701,0
21.4313,26.9174,7.51913,-0.194374,-0.980928,0
1.68089,42.0247,23.5385,0.4298,-0.902924,0
-3.49459,51.6259,26.3765,0.316126,-0.948717,0
-9.24504,29.0252,-27.7988,0.00797111,-0.999968,0
27.9422,28.9556,11.2014,-0.39308,-0.919504,0
-7.12173,34.4277,-32.2595,0.0570758,-0.99837,0
11.4086,47.2733,13.533,0.248819,-0.96855,0
27.949,28.4384,10.7922,-0.385388,-0.922754,0
10.8222,46.8036,13.7268,0.29323,-0.956042,0
18.5196,24.3983,1.77597,-0.157689,-0.987489,0
-6.53768,31.8252,5.31142,-0.0965886,-0.995324,0
38.2468,17.7032,10.2493,-0.488953,-0.87231,0
-15.0565,44.5762,11.9158,0.334929,-0.942244,0
6.06655,48.1209,-24.2966,0.27059,-0.962695,0
16.3455,50.7109,-23.292,-0.144988,-0.989433,0
-13.1581,32.7979,4.23954,-0.0428332,-0.999082,0
29.4136,44.1266,16.671,-0.615028,-0.788505,0
-6.66203,43.3845,-27.0926,0.281596,-0.959533,0
8.16055,26.1018,17.5975,-0.114749,-0.993395,0
30.5622,26.5503,16.75,-0.468814,-0.883297,0
-13.9848,42.8281,-29.5688,0.308497,-0.951225,0
-28.1148,32.2514,-21.3807,0.13332,-0.991073,0
-0.870765,32.1536,25.2942,0.0146056,-0.999893,0
-11.1532,34.606,25.2193,0.00628287,-0.99998,0
31.3982,37.8295,-13.2312,-0.735988,-0.676994,0
-28.9713,31.7438,-39.346,0.00955181,-0.999954,0
-31.4178,37.1946,26.5605,0.198303,-0.980141,0
-23.1581,30.1794,23.1074,-0.0161117,-0.99987,0
9.75497,45.5987,-25.0892,0.419151,-0.907917,0
6.46493,55.4115,19.5915,0.349843,-0.936808,0
20.6728,28.4622,-6.96531,-0.11157,-0.993757,0
-30.3965,38.3934,25.4658,0.213937,-0.976847,0
8.31771,47.0277,-23.6441,0.349363,-0.936987,0
16.9664,24.5671,-3.15465,-0.120689,-0.99269,0
37.2897,13.404,6.7536,-0.44864,-0.893713,0
-33.6159,29.8025,-31.8965,0.124396,-0.992233,0
36.2224,34.9328,17.9518,-0.76411,-0.645086,0
39.2831,31.4344,-8.78623,-0.821971,-0.569529,0
1.27666,34.1816,17.4721,0.191014,-0.981587,0
3.756,26.9979,5.85053,-0.144195,-0.989549,0
5.54464,42.0492,-24.4591,0.619771,-0.784783,0
-12.3808,29.766,-31.973,0.0250354,-0.999687,0
36.2068,26.6128,1.34707,-0.554088,-0.832458,0
21.1901,47.742,13.3147,-0.326464,-0.94521,0
9.01891,46.5651,13.9145,0.385546,-0.922689,0
-15.2783,41.0281,11.4599,0.236548,-0.97162,0
1.64548,41.7039,17.3615,0.491918,-0.870641,0
-6.85171,29.8086,-14.4022,-0.134075,-0.990971,0
24.2774,23.8233,4.07875,-0.231923,-0.972734,0
5.19953,52.05,14.596,0.378221,-0.925715,0
-3.34357,33.4709,18.1554,0.0585818,-0.998283,0
-10.7667,29.7355,22.0409,-0.0349959,-0.999387,0
-34.3173,32.5464,18.6928,0.201614,-0.979465,0
-8.34483,30.0289,4.01336,-0.0888717,-0.996043,0
31.2551,22.4913,12.8256,-0.389514,-0.921021,0
42.7752,24.4835,6.63981,-0.652699,-0.757617,0
-6.87128,47.893,-27.4675,0.376999,-0.926214,0
-13.2878,47.4371,30.9597,0.365834,-0.93068,0
17.3619,50.2201,16.9137,-0.0279936,-0.999608,0
11.9506,30.0217,0.178908,-0.136456,-0.990646,0
31.1774,23.1729,10.4967,-0.388078,-0.921626,0
31.2378,24.8364,16.9523,-0.451311,-0.892367,0
41.3853,28.0844,-2.04152,-0.782356,-0.622831,0
20.9198,30.1785,9.29165,-0.14031,-0.990108,0
28.8028,26.9373,2.11669,-0.287556,-0.957764,0
31.5399,32.5603,17.7187,-0.633671,-0.773602,0
-5.58907,53.3452,-27.7404,0.362771,-0.931878,0
22.1494,27.8973,-6.8051,-0.114574,-0.993415,0
-5.59448,47.8869,-34.4436,0.376574,-0.926387,0
-30.1808,27.8134,20.6407,0.0970147,-0.995283,0
37.6919,18.3553,14.4463,-0.496315,-0.868142,0
46.7622,15.5247,7.59647,-0.508426,-0.861106,0
37.5092,18.6179,14.9722,-0.497791,-0.867297,0
-7.85065,40.5415,-24.7111,0.153543,-0.988142,0
31.3621,30.6597,14.7843,-0.589404,-0.807838,0
-14.2968,30.1284,-27.1214,-0.00518125,-0.999987,0
19.4496,25.5244,11.0141,-0.155963,-0.987763,0
-23.1872,39.0251,8.01192,0.264159,-0.964479,0
-18.7224,35.1568,-34.1275,0.0859895,-0.996296,0
-6.94314,29.4267,-23.821,-0.0160311,-0.999871,0
-16.9799,39.2605,31.0298,0.188366,-0.982099,0
24.0607,23.4794,14.4025,-0.238475,-0.971149,0
39.7715,27.4606,-0.917739,-0.727147,-0.686482,0
-19.632,45.6198,24.3464,0.362546,-0.931966,0
8.42833,40.1754,-21.8376,0.667162,-0.744913,0
-7.13974,28.6438,23.2411,-0.040693,-0.999172,0
-29.0514,26.142,-39.6012,0.00528999,-0.999986,0
-6.0843,28.9758,13.2455,-0.0848887,-0.99639,0
9.16942,46.2285,17.763,0.408836,-0.912608,0
29.2445,22.4312,-1.67716,-0.30451,-0.952509,0
21.821,43.1178,-14.8668,-0.618037,-0.786149,0
-20.9989,30.5385,-25.575,0.0375579,-0.999294,0
-24.5351,38.3364,-25.8175,0.26232,-0.964981,0
-12.0037,33.2806,6.39065,-0.0465593,-0.998916,0
-4.0266,33.705,8.36885,-0.102422,-0.994741,0
25.2971,47.359,-17.3084,-0.627279,-0.778795,0
38.6803,27.2283,-7.78016,-0.778478,-0.627671,0
15.2009,45.1393,-21.4288,0.45872,-0.888581,0
8.8368,48.3727,18.8425,0.379574,-0.925161,0
27.8256,26.7455,14.63,-0.366533,-0.930405,0
-37.02,34.3828,17.0537,0.231791,-0.972766,0
6.58305,38.052,-22.079,0.656484,-0.75434,0
14.479,43.8339,17.1929,0.077618,-0.996983,0
-22.1038,38.2506,31.5651,0.180578,-0.983561,0
-5.3676,35.5957,-25.2658,0.0482438,-0.998836,0
21.3399,46.6901,-20.0229,-0.477275,-0.878754,0
29.8524,33.3563,16.4901,-0.580461,-0.814288,0
0.931783,41.7757,15.8089,0.474156,-0.880441,0
-27.8806,30.973,-41.1062,0.00423788,-0.999991,0
-28.303,38.0012,-34.7449,0.137262,-0.990535,0
-26.6173,41.8522,-33.5471,0.25096,-0.967997,0
25.6209,25.0309,-4.80472,-0.141523,-0.989935,0
-30.1231,38.496,30.4979,0.204766,-0.978811,0
-26.0375,35.078,-25.2645,0.180145,-0.98364,0
-3.25058,35.4379,24.0903,0.105146,-0.994457,0
20.6856,25.3476,-3.3122,-0.125539,-0.992089,0
28.9128,41.0036,19.1839,-0.621136,-0.783703,0
11.8818,28.1797,-4.74055,-0.124146,-0.992264,0
-28.1319,35.823,-41.8928,-0.023397,-0.999726,0
-20.3839,36.5039,25.6812,0.109242,-0.994015,0
-12.3309,48.5895,11.899,0.359263,-0.933236,0
17.9794,29.3956,3.96963,-0.155167,-0.987888,0
-19.4196,41.8303,11.4149,0.314044,-0.949408,0
-17.7767,33.9487,-32.0196,0.0576721,-0.998336,0
33.6217,23.7802,16.1457,-0.490806,-0.871269,0
34.4449,27.8287,12.2719,-0.607309,-0.794466,0
-25.0755,39.122,19.0374,0.272051,-0.962283,0
-26.1215,30.4065,31.1988,0.0281985,-0.999602,0
38.7668,28.4406,-8.91621,-0.810366,-0.585924,0
-32.3845,33.0428,26.3106,0.145349,-0.98938,0
-20.3484,37.8101,20.5527,0.178514,-0.983937,0
36.1458,17.8578,10.0523,-0.463831,-0.885924,0
27.4542,22.5365,8.76972,-0.312982,-0.949759,0
-13.5842,33.6923,-16.2807,-0.0406053,-0.999175,0
-21.0936,30.6524,17.006,-0.0136607,-0.999907,0
27.0978,27.8699,17.6131,-0.354598,-0.935019,0
5.47747,53.3408,17.5354,0.361263,-0.932464,0
-17.9712,46.6979,22.2598,0.375343,-0.926886,0
-16.8138,38.1397,-34.2687,0.17631,-0.984335,0
4.05696,40.6073,23.2503,0.506289,-0.862364,0
12.6564,30.1812,-6.78823,-0.11949,-0.992835,0
-31.3469,25.0258,20.7935,0.0743771,-0.99723,0
-23.6741,32.3326,10.0251,0.0982622,-0.995161,0
30.8239,27.456,3.55182,-0.354684,-0.934986,0
-19.0697,35.2709,27.8953,0.0458206,-0.99895,0
-27.8659,27.443,-35.8614,0.0210628,-0.999778,0
-14.7425,37.4931,24.7165,0.100624,-0.994925,0
-5.60738,41.2194,22.96,0.259486,-0.965747,0
38.9453,19.9347,10.323,-0.535817,-0.844334,0
-8.50067,39.5483,12.6228,0.150897,-0.98855,0
-20.9294,39.651,24.7489,0.254654,-0.967032,0
17.9789,24.4592,-4.77725,-0.114763,-0.993393,0
8.2617,55.9834,-23.3463,-0.000233807,-1,0
6.93921,39.444,-25.0043,0.646117,-0.763238,0
35.955,32.1742,12.6187,-0.761755,-0.647865,0
12.9596,30.2112,18.6452,-0.0751506,-0.997172,0
-3.55252,47.501,19.5589,0.357493,-0.933916,0
18.3289,52.7946,-18.5363,-0.45867,-0.888607,0
-15.9494,37.9856,22.2218,0.122893,-0.99242,0
3.30112,41.689,-25.1718,0.623396,-0.781906,0
26.2455,35.2894,14.0123,-0.480189,-0.877165,0
14.3949,26.0495,-8.85299,-0.106047,-0.994361,0
1.69122,29.4567,22.7702,-0.0699404,-0.997551,0
11.424,31.0734,17.4977,-0.0845018,-0.996423,0
3.79757,48.9135,14.1984,0.408839,-0.912607,0
25.7,28.2413,17.5587,-0.26934,-0.963045,0
34.8035,15.5234,4.38983,-0.46394,-0.885867,0
38.3788,27.2376,2.61847,-0.626289,-0.779591,0
25.7083,23.0831,-1.8793,-0.187224,-0.982317,0
3.53061,36.2345,21.7824,0.34171,-0.939805,0
-0.436805,39.7909,22.0389,0.336152,-0.941808,0
23.0308,49.0376,16.4307,-0.351434,-0.936213,0
5.69737,31.3594,16.5454,-0.034164,-0.999416,0
3.97802,32.6066,22.6295,0.0659252,-0.997825,0
14.498,30.2357,12.7936,-0.0847589,-0.996401,0
1.9538,33.4409,-19.6375,0.22559,-0.974222,0
-3.24586,28.2895,-17.7408,-0.117926,-0.993022,0
-0.947171,29.5386,-17.6372,-0.104357,-0.99454,0
-22.5829,31.5793,-25.1668,0.0669597,-0.997756,0
-16.9526,32.1155,-36.3117,0.0256396,-0.999671,0
28.9875,22.7686,12.2527,-0.351373,-0.936235,0
8.98994,26.484,15.6784,-0.119229,-0.992867,0
-22.1709,33.3667,26.6209,0.0162154,-0.999869,0
-22.002,41.7723,22.7723,0.321407,-0.946941,0
34.9878,31.7189,-10.9764,-0.777959,-0.628315,0
10.627,26.0922,17.0609,-0.108927,-0.99405,0
-28.8562,27.8069,-40.0547,0.00491065,-0.999988,0
-15.7052,47.6426,12.7233,0.367608,-0.929981,0
33.6415,26.493,3.00328,-0.444554,-0.895752,0
-9.93105,29.3776,20.5468,-0.035481,-0.99937,0
3.63584,32.0323,16.4355,0.0240626,-0.99971,0
24.1931,34.3049,13.9162,-0.353353,-0.93549,0
-21.6333,33.9603,23.3803,0.0187782,-0.999824,0
-29.4824,32.9698,-36.4842,0.0281737,-0.999603,0
33.1261,26.2051,1.82096,-0.428562,-0.903512,0
-13.8524,44.3646,19.5598,0.337666,-0.941266,0
38.0875,20.2929,2.7168,-0.537241,-0.843429,0
33.373,18.3124,6.39621,-0.432594,-0.901589,0
-1.63846,54.0612,-23.873,0.256164,-0.966633,0
-7.50015,34.496,21.4726,0.0322999,-0.999478,0
-33.0977,37.6571,27.3277,0.203066,-0.979165,0
-16.5147,34.0564,26.703,-0.0320561,-0.999486,0
5.58701,28.4065,-4.25037,-0.14837,-0.988932,0
-8.87738,36.3566,15.3935,0.0515735,-0.998669,0
36.2886,15.2894,10.3792,-0.448908,-0.893578,0
-20.0331,37.6728,-35.3792,0.138144,-0.990412,0
23.0015,29.0928,3.47156,-0.199442,-0.97991,0
-5.68949,38.3756,-25.8217,0.0594113,-0.998234,0
26.6612,26.1296,17.4547,-0.316811,-0.948489,0
16.9351,29.0691,-5.92101,-0.112331,-0.993671,0
-11.217,39.8109,16.6195,0.175076,-0.984555,0
40.8879,18.0036,12.0961,-0.525218,-0.850968,0
21.3129,42.6352,15.1722,-0.47733,-0.878724,0
18.1005,50.1744,-20.7795,-0.301007,-0.953622,0
-30.5569,27.0135,24.013,0.0491158,-0.998793,0
32.6382,40.2759,16.7399,-0.689236,-0.724537,0
-33.3182,27.1684,22.1215,0.0894411,-0.995992,0
21.6383,45.2061,12.606,-0.422051,-0.906572,0
-7.59189,32.1058,29.2235,-0.0080124,-0.999968,0
-9.70276,38.2851,-28.7969,0.141567,-0.989929,0
45.2447,23.4642,-0.607306,-0.673111,-0.739541,0
4.54881,46.0783,18.5382,0.466055,-0.884755,0
24.1298,28.8183,6.4849,-0.233869,-0.972268,0
-4.36855,44.2207,22.8949,0.325213,-0.945641,0
-17.4452,37.1671,-24.4732,0.136655,-0.990619,0
29.4558,22.0458,11.2275,-0.349327,-0.937001,0
33.0032,39.5546,-9.24465,-0.740484,-0.672074,0
-2.92855,44.7325,20.7436,0.354851,-0.934923,0
38.2242,26.7914,-8.20291,-0.761723,-0.647902,0
0.170748,27.491,15.1709,-0.116184,-0.993228,0
31.9352,25.157,-1.4241,-0.352617,-0.935768,0
8.32064,56.4086,-23.0146,-0.00784575,-0.999969,0
-7.3034,46.5487,-23.7378,0.370066,-0.929005,0
-29.4111,36.4896,-30.555,0.219817,-0.975541,0
-1.49145,47.6598,-23.4403,0.331498,-0.943456,0
39.2867,11.8199,7.49605,-0.450323,-0.892866,0
8.68625,49.424,-22.4447,0.203478,-0.97908,0
-7.91965,42.5553,17.8042,0.278997,-0.960292,0
-25.4076,37.6807,-35.5554,0.123507,-0.992344,0
-24.304,28.5779,30.9857,-0.00263155,-0.999997,0
-3.55665,35.3652,18.5453,0.130118,-0.991498,0
8.68364,47.3938,13.8463,0.387677,-0.921795,0
1.96477,38.4601,22.6113,0.37711,-0.926169,0
15.308,51.3534,13.8178,0.106453,-0.994318,0
29.9335,28.9745,-3.82136,-0.163134,-0.986604,0
-25.3947,34.8087,-30.1127,0.165637,-0.986187,0
18.3893,30.1441,10.3124,-0.103038,-0.994677,0
-0.425077,39.3843,-26.169,0.131174,-0.991359,0
-32.5586,29.8601,16.8148,0.160599,-0.98702,0
5.52878,52.7485,-28.3257,0.154966,-0.98792,0
25.8346,44.4225,16.72,-0.547454,-0.836836,0
7.18582,26.9736,19.3487,-0.111494,-0.993765,0
-15.115,34.4592,6.33682,-0.0147147,-0.999892,0
-9.98466,32.4344,-13.2952,-0.110941,-0.993827,0
-9.91544,37.595,14.9586,0.0904925,-0.995897,0
-8.81109,43.9769,18.684,0.309821,-0.950795,0
-1.20893,35.3169,-22.3672,0.204358,-0.978896,0
-16.8619,30.4107,7.33772,-0.0185394,-0.999828,0
-31.9715,38.7504,29.8844,0.214233,-0.976783,0
-27.0952,26.6122,-23.1084,0.0971433,-0.99527,0
-1.75566,29.2363,-11.8581,-0.160534,-0.98703,0
-12.0644,41.7248,-32.392,0.270029,-0.962852,0
31.1811,37.2592,-13.7195,-0.735846,-0.677148,0
-12.4841,30.2349,-24.5352,-0.00390187,-0.999992,0
32.6128,35.039,-10.9306,-0.751436,-0.659806,0
-15.9856,30.1675,-23.6577,-0.00734251,-0.999973,0
-31.7138,26.984,26.3924,0.04682,-0.998903,0
-11.7189,34.254,-19.5999,-0.0262891,-0.999654,0
-11.4591,50.3191,18.068,0.371832,-0.9283,0
7.18339,56.1879,-24.9083,0.0373066,-0.999304,0
26.1382,23.6068,0.640836,-0.234164,-0.972197,0
-29.5325,39.9209,-37.9066,0.0272271,-0.999629,0
-7.67728,52.1834,24.1955,0.346435,-0.938074,0
-28.149,37.1306,-41.2575,-0.0321836,-0.999482,0
-25.9076,33.0727,-28.3787,0.141521,-0.989935,0
-23.5473,35.6914,-39.3111,0.0164819,-0.999864,0
-8.59089,29.1859,28.1623,-0.0234978,-0.999724,0
-2.49741,49.8874,-22.4942,0.310656,-0.950522,0
30.9156,27.9333,-0.588112,-0.271622,-0.962404,0
-36.5677,36.0121,16.4199,0.236947,-0.971522,0
-3.27363,30.515,-13.9283,-0.144422,-0.989516,0
0.348074,29.4274,18.7277,-0.0759061,-0.997115,0
6.2316,36.8931,-23.8881,0.610006,-0.792397,0
-25.6267,28.9415,-35.4789,0.0206962,-0.999786,0
24.9238,29.1144,7.62087,-0.250487,-0.96812,0
-22.5276,44.2114,20.8066,0.34932,-0.937004,0
6.95063,42.9012,21.2847,0.57371,-0.819058,0
-26.2984,30.0427,30.9577,0.0256776,-0.99967,0
-17.4065,40.9958,-30.3876,0.282124,-0.959378,0
-11.3787,35.6837,-35.3175,0.0914066,-0.995814,0
12.8718,28.7395,-6.44454,-0.117556,-0.993066,0
-3.13071,48.8617,-26.4083,0.370699,-0.928753,0
-28.7378,31.2996,28.4181,0.0757318,-0.997128,0
-4.59193,34.0998,-17.3395,-0.06737,-0.997728,0
-34.9323,35.4769,27.8798,0.193573,-0.981086,0
23.7222,45.1203,17.7002,-0.465483,-0.885057,0
31.1657,31.3672,15.3704,-0.59665,-0.802502,0
-9.68561,50.8578,-25.6126,0.386305,-0.922371,0
-14.6748,36.9809,-37.6903,0.121433,-0.9926,0
39.1927,23.0911,2.70946,-0.585611,-0.810593,0
1.99143,30.4253,13.686,-0.0838584,-0.996478,0
3.01774,55.1757,16.6038,0.357986,-0.933727,0
-4.98611,32.7434,12.4839,-0.051921,-0.998651,0
3.24304,38.7937,-23.5687,0.568599,-0.822615,0
34.4227,16.388,-0.109394,-0.479972,-0.877284,0
-26.8124,36.7539,32.0046,0.168381,-0.985722,0
-20.6728,37.7542,23.089,0.179919,-0.983681,0
19.4967,26.8833,8.4446,-0.16244,-0.986718,0
-10.2511,40.9825,14.2733,0.210247,-0.977648,0
-30.9345,38.915,22.9988,0.235731,-0.971818,0
37.8838,12.6557,4.50035,-0.457075,-0.889428,0
-6.45233,28.7318,6.71008,-0.101169,-0.994869,0
-20.9044,30.4676,-37.197,0.0153937,-0.999882,0
-20.0444,35.3634,29.2975,0.0560494,-0.998428,0
18.1108,43.6984,17.5755,-0.251502,-0.967857,0
-19.4242,40.9815,31.4527,0.259119,-0.965845,0
-5.49088,46.5072,-30.8519,0.373803,-0.927508,0
33.8522,29.3747,-8.43149,-0.63756,-0.770401,0
-24.8977,37.7754,-33.3909,0.183751,-0.982973,0
-9.39672,35.7048,-23.6352,0.0408418,-0.999166,0
-19.3474,40.2772,-41.1149,0.0250187,-0.999687,0
34.7218,32.3683,12.5952,-0.741991,-0.67041,0
16.0452,24.8958,16.8058,-0.0794299,-0.99684,0
17.9537,49.7437,-14.3141,-0.425776,-0.904828,0
20.8828,44.2621,19.9191,-0.367107,-0.930179,0
5.82997,28.2924,-4.87172,-0.148272,-0.988947,0
-16.5428,36.0664,9.3902,0.0377222,-0.999288,0
-13.3348,46.5041,13.105,0.351277,-0.936272,0
15.0163,27.4494,10.7405,-0.119751,-0.992804,0
-20.0134,40.4189,19.2631,0.29823,-0.954494,0
-19.761,40.7149,19.3577,0.302851,-0.953038,0
36.0064,15.1258,10.6231,-0.447028,-0.89452,0
37.1605,33.4529,-10.6387,-0.80329,-0.595588,0
37.8466,10.0673,11.5653,-0.436093,-0.899901,0
-27.2577,26.9515,13.8564,0.126157,-0.99201,0
42.6343,27.415,11.6826,-0.740932,-0.67158,0
-32.195,30.2877,-39.6433,0.0178513,-0.999841,0
-34.5261,37.1783,-40.4782,-0.00644209,-0.999979,0
11.2325,52.7259,-23.7131,-0.00470835,-0.999989,0
3.20067,34.6111,-21.1396,0.445842,-0.895112,0
-20.4221,33.7334,-26.1507,0.0658307,-0.997831,0
9.84516,45.7273,-22.3049,0.45243,-0.8918,0
-32.9544,28.2199,-35.3305,0.0539274,-0.998545,0
19.0954,27.4356,12.6224,-0.108499,-0.994097,0
8.2095,27.9072,-7.11994,-0.132937,-0.991124,0
-29.9729,39.7539,-41.6727,-0.053914,-0.998546,0
30.3445,22.9776,-0.242747,-0.344285,-0.938865,0
38.7419,31.5716,-5.42511,-0.804244,-0.5943,0
-21.1745,31.6916,-17.4343,0.0370641,-0.999313,0
-25.3774,32.1506,-25.5288,0.120414,-0.992724,0
10.6471,52.2287,14.7428,0.297167,-0.954826,0
23.6146,42.5781,-11.6388,-0.688452,-0.725282,0
8.13332,26.6188,-0.860474,-0.139174,-0.990268,0
27.8171,32.7302,11.8294,-0.461133,-0.887331,0
-31.4136,24.8888,-32.5374,0.0880976,-0.996112,0
-18.5574,41.9535,8.70035,0.301118,-0.953587,0
-21.5178,44.7111,-34.4599,0.288863,-0.95737,0
-36.1115,32.4316,18.2702,0.210243,-0.977649,0
-1.81156,48.5421,-31.5832,0.366487,-0.930423,0
-14.5263,34.2985,-34.2317,0.0730652,-0.997327,0
42.2788,15.4123,8.03425,-0.485671,-0.874141,0
12.3217,25.3531,4.44736,-0.141882,-0.989884,0
-24.8955,42.8394,23.5667,0.31908,-0.947728,0
2.49958,41.4867,-23.0104,0.626469,-0.779446,0
-15.9472,44.5451,15.6019,0.35084,-0.936436,0
-19.5194,31.2114,8.7718,0.0118657,-0.99993,0
-23.0198,42.2264,9.1704,0.324194,-0.945991,0
34.3743,28.1705,-1.5708,-0.495614,-0.868543,0
45.0359,21.1949,10.6461,-0.591818,-0.806071,0
-5.1569,42.598,-27.6942,0.25643,-0.966563,0
23.0357,28.0522,17.3432,-0.146758,-0.989172,0
-12.6355,35.5886,-29.4372,0.0791911,-0.996859,0
-9.68976,37.0373,-32.9321,0.121093,-0.992641,0
-0.247806,42.7461,23.5721,0.382567,-0.923928,0
-7.05455,48.4365,27.5195,0.342987,-0.93934,0
-25.5392,34.0064,17.3857,0.134549,-0.990907,0
1.02203,48.07,-23.4464,0.25519,-0.966891,0
-30.6458,33.9638,29.7213,0.145137,-0.989412,0
-32.2411,38.5095,13.0511,0.253169,-0.967422,0
-26.5928,34.8479,8.27602,0.177377,-0.984143,0
-21.1676,30.2513,-26.8681,0.0348164,-0.999394,0
26.6145,39.5823,14.0292,-0.592452,-0.805606,0
-30.985,37.0503,-24.7389,0.230944,-0.972967,0
-27.0182,40.9392,18.1536,0.296585,-0.955006,0
29.7007,22.5567,-1.71947,-0.324918,-0.945742,0
-3.3719,33.1996,6.64019,-0.113726,-0.993512,0
-7.17361,41.8295,19.9916,0.267991,-0.963421,0
9.5788,55.0698,15.6191,0.321728,-0.946832,0
30.7263,21.9793,5.7491,-0.37421,-0.927344,0
8.57556,45.625,21.3844,0.45872,-0.888581,0
18.0746,27.0456,-8.61663,-0.10638,-0.994326,0
-21.1851,42.8697,-22.8209,0.33342,-0.942779,0
-5.03933,49.6916,-22.8106,0.356346,-0.934354,0
-3.1195,32.8928,-14.5186,-0.128576,-0.9917,0
40.4165,25.8759,1.6607,-0.661607,-0.749851,0
-14.3198,38.1066,28.0961,0.11751,-0.993072,0
-20.3665,32.0874,31.925,-0.0154819,-0.99988,0
-11.957,32.7149,-36.0277,0.0495573,-0.998771,0
-28.8154,26.7042,-26.5362,0.125961,-0.992035,0
13.9333,27.0177,12.2399,-0.11009,-0.993922,0
-9.0358,38.5629,12.6569,0.106537,-0.994309,0
42.6218,18.0176,14.6374,-0.544038,-0.839061,0
-3.23111,53.8095,-29.8923,0.341124,-0.940018,0
24.374,23.7005,1.94402,-0.216678,-0.976243,0
-30.7657,25.0794,26.0197,0.0196017,-0.999808,0
20.8833,49.6764,15.3792,-0.230971,-0.972961,0
17.7741,50.4048,-21.7964,-0.262444,-0.964947,0
-32.4158,26.7056,21.3566,0.0888232,-0.996047,0
9.36401,31.2504,19.2529,-0.0744138,-0.997227,0
-7.27639,45.0182,21.5619,0.327114,-0.944985,0
-22.9764,29.3566,26.2599,-0.0120332,-0.999928,0
31.5539,21.9231,15.707,-0.401485,-0.915866,0
-15.7103,47.2857,-28.4777,0.396335,-0.918106,0
-3.03142,30.2659,22.135,-0.0464011,-0.998923,0
-27.1471,35.1367,14.7901,0.197949,-0.980212,0
14.4325,28.1817,14.1575,-0.0876263,-0.996153,0
-15.1583,43.5508,-25.2034,0.315515,-0.948921,0
30.7282,39.1611,18.2355,-0.655776,-0.754956,0
25.6657,38.8438,19.8122,-0.573582,-0.819148,0
16.3939,47.6933,-20.845,0.0740854,-0.997252,0
-24.7552,38.3699,18.2031,0.249178,-0.968458,0
-9.00088,51.4873,-28.1927,0.38589,-0.922545,0
-11.3647,32.4437,-34.0064,0.0481328,-0.998841,0
23.9014,34.8159,16.1911,-0.371301,-0.928513,0
35.0511,26.3088,14.0844,-0.604816,-0.796365,0
-13.4168,30.1376,17.7284,-0.0421053,-0.999113,0
-16.3028,30.0014,17.3317,-0.0630043,-0.998013,0
35.5359,23.3554,7.74022,-0.504152,-0.863615,0
-29.1315,39.3896,23.0492,0.246245,-0.969208,0
-12.1766,41.8625,11.4566,0.239962,-0.970782,0
-10.7296,48.1542,-31.5207,0.385906,-0.922538,0
42.2883,18.6528,14.8255,-0.555652,-0.831415,0
36.32,31.6673,12.4054,-0.760748,-0.649047,0
0.951618,37.1525,-20.0826,0.494709,-0.869059,0
26.9545,28.6872,-2.63194,-0.145122,-0.989414,0
-17.472,31.0772,-19.813,0.00294073,-0.999996,0
-3.43371,40.9764,20.2805,0.303482,-0.952837,0
36.042,36.6427,15.1775,-0.774229,-0.632906,0
-16.0717,36.7927,31.4015,0.0727877,-0.997347,0
-3.72236,32.7148,-21.9713,0.0279027,-0.999611,0
31.5572,21.7497,-2.37384,-0.393002,-0.919538,0
37.0075,31.4549,9.74722,-0.767684,-0.640829,0
14.0617,54.2253,19.1639,0.224051,-0.974577,0
-28.3139,34.2063,7.8164,0.176876,-0.984233,0
-12.1875,31.5843,24.6161,-0.0384204,-0.999262,0
17.9446,25.5519,5.85222,-0.165099,-0.986277,0
24.3319,23.335,0.576923,-0.203899,-0.978992,0
-15.2432,43.4096,-40.5493,0.230083,-0.973171,0
7.6564,26.7558,-2.88624,-0.138074,-0.990422,0
37.1553,27.5411,-3.36753,-0.663295,-0.748358,0
-0.903173,51.2846,17.3626,0.359747,-0.93305,0
7.11529,29.7018,3.92875,-0.145429,-0.989369,0
17.86,24.4779,5.21584,-0.166311,-0.986073,0
-31.4869,34.2283,-36.3434,0.0320154,-0.999487,0
43.822,18.4381,14.5549,-0.558366,-0.829595,0
15.1698,25.411,-1.49246,-0.128378,-0.991725,0
-29.811,25.2319,21.0378,0.0683265,-0.997663,0
-17.0007,40.0198,-33.6829,0.232672,-0.972555,0
-17.1908,43.9425,21.795,0.354573,-0.935028,0
-19.0175,36.2569,11.3885,0.0902083,-0.995923,0
5.03176,49.5826,23.8942,0.372533,-0.928019,0
6.39667,26.4491,18.8114,-0.114737,-0.993396,0
15.4155,49.5399,19.0629,0.091097,-0.995842,0
-17.3399,39.2342,-27.606,0.220004,-0.975499,0
-34.0151,33.582,14.082,0.218628,-0.975808,0
3.4689,36.123,-20.1531,0.55857,-0.829458,0
-16.9997,35.096,31.8354,0.0196397,-0.999807,0
41.241,16.958,11.9057,-0.512872,-0.858465,0
34.3236,29.8352,15.0514,-0.675967,-0.736932,0
26.6855,26.0451,7.5794,-0.294796,-0.95556,0
-15.2837,33.375,-34.3198,0.0517769,-0.998659,0
-29.0269,26.204,13.384,0.133994,-0.990982,0
-33.7124,31.1944,27.1453,0.13435,-0.990934,0
6.9618,47.7292,21.1259,0.419604,-0.907707,0
-14.6766,40.6107,-34.885,0.233791,-0.972287,0
-10.2015,46.6176,-27.59,0.364204,-0.931319,0
12.0575,47.4849,22.2375,0.297457,-0.954735,0
-3.31388,28.3849,5.81023,-0.120976,-0.992655,0
-11.0886,31.9078,-13.171,-0.0986019,-0.995127,0
0.376419,38.1177,-26.6188,0.225676,-0.974202,0
11.0522,51.0777,-25.9363,0.0825441,-0.996587,0
-26.6286,36.7419,25.434,0.181764,-0.983342,0
13.4836,51.9256,21.7406,0.241969,-0.970284,0
10.1024,31.323,16.563,-0.0867009,-0.996234,0
-18.2391,30.3966,-23.9063,-0.00473093,-0.999989,0
10.5202,43.7338,-19.6854,0.626446,-0.779465,0
9.80585,43.682,16.8374,0.490371,-0.871514,0
-29.4901,36.1265,-36.0118,0.0553665,-0.998466,0
-9.85201,34.224,-31.1827,0.0587164,-0.998275,0
8.25609,31.7452,-7.61815,-0.135692,-0.990751,0
-14.2242,31.1814,-14.9013,-0.0514024,-0.998678,0
14.6414,54.126,17.265,0.191549,-0.981483,0
-14.5576,47.1693,11.152,0.357578,-0.933883,0
40.6547,18.2909,2.43407,-0.529563,-0.84827,0
28.0538,36.37,-10.3721,-0.730947,-0.682435,0
-17.6925,31.1742,5.01168,-0.0106409,-0.999943,0
-26.4742,34.8263,30.9987,0.126335,-0.991988,0
-7.90283,31.8807,27.5655,-0.0111323,-0.999938,0
-15.6397,33.2752,26.9896,-0.0422382,-0.999108,0
8.6316,26.213,-3.62459,-0.134266,-0.990945,0
37.3119,26.1107,15.9093,-0.682006,-0.731346,0
24.7233,27.0828,7.16365,-0.248362,-0.968667,0
-6.67491,51.1291,14.782,0.344857,-0.938655,0
28.1106,44.4768,-11.6238,-0.701408,-0.71276,0
-14.0041,42.3725,-36.2179,0.270623,-0.962686,0
1.61278,28.8951,23.9568,-0.0818489,-0.996645,0
-22.9718,34.675,-25.1901,0.130077,-0.991504,0
23.6748,27.2718,-1.51238,-0.150332,-0.988636,0
31.9326,35.7002,-6.66949,-0.738309,-0.674462,0
-24.6136,32.6544,31.0164,0.044828,-0.998995,0
-9.58114,44.0495,28.2343,0.320171,-0.94736,0
-20.258,40.4723,18.7855,0.297259,-0.954797,0
-9.10083,47.5622,12.0847,0.345032,-0.938591,0
44.2577,16.5199,6.33796,-0.503491,-0.864001,0
31.4276,24.0234,10.3269,-0.410191,-0.912,0
-6.24918,29.3257,16.3479,-0.0686045,-0.997644,0
-4.3764,28.1776,17.3131,-0.0827869,-0.996567,0
9.23652,29.7704,-4.17024,-0.132928,-0.991126,0
-27.1515,41.4255,29.0827,0.235927,-0.971771,0
-4.96655,28.8544,-27.0457,0.00936156,-0.999956,0
-24.7623,42.8565,27.1519,0.287058,-0.957913,0
0.614092,31.8695,4.86977,-0.133305,-0.991075,0
-31.0493,28.0058,12.2328,0.147552,-0.989054,0
-17.9163,43.5856,31.9172,0.320189,-0.947354,0
-4.46474,38.2249,16.747,0.211223,-0.977438,0
23.6096,26.7701,17.2027,-0.188502,-0.982073,0
-1.33678,42.8899,19.9235,0.380906,-0.924614,0
-24.4499,28.7935,-40.6589,-0.000229416,-1,0
-28.6043,39.452,28.1047,0.217925,-0.975965,0
10.5373,55.8836,-22.3852,-0.0749793,-0.997185,0
-20.8017,30.6019,28.0671,-0.038177,-0.999271,0
-20.7514,38.3014,17.308,0.207727,-0.978187,0
24.4508,30.2472,9.946,-0.246085,-0.969248,0
4.46133,39.0375,21.7534,0.516667,-0.856187,0
22.0749,46.9966,-19.8244,-0.520787,-0.853687,0
25.3024,40.5087,-13.9761,-0.712282,-0.701894,0
-12.9512,36.3205,29.3783,0.0516912,-0.998663,0
16.7161,47.5084,-22.447,0.093613,-0.995609,0
-2.00986,51.3162,18.4891,0.351073,-0.936348,0
-5.57591,36.3925,-25.1681,0.0517596,-0.99866,0
-14.8998,34.0274,-24.7861,0.0312456,-0.999512,0
18.5276,48.5658,-17.6914,-0.329254,-0.944241,0
41.5317,24.2947,13.3413,-0.673981,-0.738749,0
-29.6964,39.7904,-32.9546,0.200349,-0.979725,0
21.6106,49.9583,-17.9179,-0.569004,-0.822335,0
-9.02917,41.9769,21.5147,0.258834,-0.965922,0
-28.2171,30.9213,12.5508,0.149013,-0.988835,0
17.4879,51.765,18.8698,0.0385946,-0.999255,0
-21.6774,42.3507,-30.2908,0.333756,-0.94266,0
19.2007,28.2153,3.45292,-0.162944,-0.986635,0
-28.6117,30.9342,23.5582,0.0733236,-0.997308,0
-2.64768,28.909,13.0304,-0.104572,-0.994517,0
-4.92851,45.0485,19.3614,0.338553,-0.940947,0
-30.5185,31.0151,9.56252,0.16473,-0.986339,0
-20.1325,43.2187,-25.5028,0.346057,-0.938214,0
-34.4469,29.0798,-28.3108,0.16333,-0.986572,0
13.8671,30.513,4.96022,-0.140218,-0.990121,0
39.7552,21.5497,3.98718,-0.570833,-0.821067,0
-30.62,30.1485,-35.487,0.039713,-0.999211,0
1.74723,46.131,16.9776,0.436463,-0.899722,0
-2.67395,48.8984,14.9367,0.359365,-0.933197,0
38.7418,29.3645,-1.29112,-0.743621,-0.668602,0
-23.2356,38.0054,30.3956,0.184083,-0.982911,0
-25.5109,28.2066,29.436,0.0023295,-0.999997,0
35.8531,32.9708,14.0494,-0.76822,-0.640186,0
-5.47206,31.3386,-19.2165,-0.0622711,-0.998059,0
18.234,29.9564,14.5767,-0.0326126,-0.999468,0
20.3441,41.0109,13.6279,-0.503624,-0.863923,0
-28.7276,36.8502,-41.5245,-0.0271894,-0.99963,0
39.6142,13.3215,6.31014,-0.458844,-0.888517,0
-29.2677,30.8743,28.8443,0.0715597,-0.997436,0
14.0119,44.4531,17.2348,0.100364,-0.994951,0
12.4682,46.1259,21.3405,0.281545,-0.959548,0
-2.48761,49.9205,14.8313,0.356589,-0.934261,0
-15.9105,43.7667,-38.3077,0.261574,-0.965183,0
38.7539,21.7739,6.54611,-0.556143,-0.831087,0
3.61848,31.7067,17.657,0.0255787,-0.999673,0
13.2791,27.7436,-3.14955,-0.125678,-0.992071,0
-15.4404,31.3239,-15.7907,-0.0303514,-0.999539,0
-26.5213,35.77,17.8222,0.194417,-0.980919,0
20.5392,23.8911,6.36517,-0.195905,-0.980623,0
30.3264,29.0064,-3.32786,-0.179501,-0.983758,0
-9.23899,33.6024,29.4942,0.00191664,-0.999998,0
-2.00705,40.2303,24.1751,0.290117,-0.956991,0
26.0239,44.3804,19.433,-0.541049,-0.840991,0
-1.56327,45.0505,-27.9035,0.486757,-0.873537,0
8.16591,54.4594,21.9363,0.348401,-0.937346,0
3.45067,31.9886,20.4221,0.0642651,-0.997933,0
-0.33212,37.6983,-20.936,0.420546,-0.907271,0
-5.61624,53.2793,-25.5138,0.353817,-0.935315,0
17.5106,24.53,1.22378,-0.14731,-0.98909,0
-23.4444,43.0137,-24.7512,0.337145,-0.941453,0
-5.42992,53.1678,24.4806,0.326936,-0.945047,0
-9.92424,34.4114,-28.4222,0.0514271,-0.998677,0
6.02892,30.2016,-5.00191,-0.147598,-0.989047,0
-27.7219,29.3321,25.5901,0.0400388,-0.999198,0
-22.9815,29.5609,14.3543,0.0644747,-0.997919,0
-8.98997,40.0092,-28.6264,0.174657,-0.984629,0
-21.1284,30.5959,-21.4082,0.0429568,-0.999077,0
23.9287,30.6518,17.1413,-0.188953,-0.981986,0
13.5362,42.9218,15.4187,0.123063,-0.992399,0
-3.25903,46.5084,-24.1369,0.396507,-0.918032,0
37.6922,33.8524,14.507,-0.805808,-0.592176,0
-14.8409,47.526,11.9079,0.361715,-0.932289,0
8.15333,50.9289,-18.2696,0.133237,-0.991084,0
-22.3675,34.4455,-26.7483,0.112561,-0.993645,0
31.424,21.4829,-1.64814,-0.400196,-0.91643,0
28.2174,41.3444,17.0903,-0.617724,-0.786395,0
6.36366,42.4773,-25.1807,0.599649,-0.800263,0
32.0233,26.2071,-6.78031,-0.343365,-0.939202,0
21.3122,48.072,14.0538,-0.321518,-0.946904,0
-6.69469,30.8641,-11.1724,-0.150247,-0.988648,0
7.57616,46.1301,-18.8104,0.453141,-0.891439,0
20.1696,28.5509,-6.35595,-0.112442,-0.993658,0
28.9888,42.9783,17.2455,-0.618824,-0.785529,0
-4.53402,42.7902,23.6304,0.304092,-0.952643,0
-15.3936,34.5591,14.8517,0.00566929,-0.999984,0
-14.0956,45.0866,26.004,0.350483,-0.936569,0
20.8278,24.6986,11.3477,-0.183487,-0.983022,0
20.3894,42.2537,13.2732,-0.468771,-0.88332,0
5.68467,36.9572,20.0788,0.498157,-0.867087,0
38.2053,33.602,-8.51136,-0.806964,-0.590601,0
28.4885,29.2163,9.3809,-0.39882,-0.917029,0
-2.82285,43.6681,16.2354,0.356516,-0.934289,0
-26.9651,41.4856,-24.7109,0.302456,-0.953163,0
-27.7686,26.5466,17.4478,0.112335,-0.99367,0
-11.4022,34.2014,-36.2348,0.0637318,-0.997967,0
-13.879,42.4946,-23.1586,0.289068,-0.957309,0
-36.1493,36.0175,-39.431,0.0131199,-0.999914,0
4.44571,31.0336,21.1968,-0.0149092,-0.999889,0
0.550143,31.454,13.5089,-0.0554448,-0.998462,0
-29.442,27.943,17.7114,0.126916,-0.991913,0
-11.7944,33.737,-19.7977,-0.0265924,-0.999646,0
-14.6608,32.502,-27.3557,0.0102696,-0.999947,0
30.3753,42.7706,15.9005,-0.642862,-0.765982,0
-12.2636,35.0859,-19.2185,-0.020676,-0.999786,0
-27.6588,26.7919,30.0113,-0.0065962,-0.999978,0
-4.16132,41.8896,22.4294,0.293115,-0.956077,0
-21.6235,42.292,14.8544,0.332661,-0.943046,0
-31.8656,30.652,-36.2944,0.0376029,-0.999293,0
44.5027,24.4288,4.02732,-0.642744,-0.766081,0
-28.3723,26.2944,-23.9725,0.108123,-0.994137,0
-29.124,26.0196,-24.1715,0.116083,-0.993239,0
-15.2384,32.4326,-14.826,-0.0358967,-0.999356,0
-14.0466,48.4476,25.0842,0.377407,-0.926048,0
7.76359,45.5258,-19.2186,0.48937,-0.872076,0
-26.2678,34.2335,15.5588,0.16664,-0.986018,0
16.9744,29.584,18.5288,-0.0257143,-0.999669,0
-18.0735,46.3503,29.5216,0.357658,-0.933853,0
-31.6159,36.8216,-36.433,0.0357591,-0.99936,0
35.1997,30.7879,11.5327,-0.714391,-0.699747,0
-18.877,30.6378,22.1806,-0.0962702,-0.995355,0
1.47055,53.4534,23.1742,0.300606,-0.953748,0
-5.20743,35.1399,26.2686,0.0554193,-0.998463,0
20.7083,24.0177,2.23054,-0.179236,-0.983806,0
27.6717,22.5895,-0.0751165,-0.26,-0.965609,0
21.9632,31.2908,10.6853,-0.127457,-0.991844,0
-9.24227,29.6787,27.5876,-0.0235818,-0.999722,0
10.3324,25.6878,-6.07973,-0.122628,-0.992453,0
-26.166,39.4178,-39.6033,-0.0288747,-0.999583,0
42.8686,26.9407,8.61995,-0.684734,-0.728793,0
-25.6261,28.102,-22.9326,0.0981857,-0.995168,0
20.0223,23.9866,5.16179,-0.191815,-0.981431,0
-3.26769,53.5376,21.7613,0.328682,-0.944441,0
-31.7067,26.6592,19.7049,0.106173,-0.994348,0
-8.71493,49.4887,26.4153,0.352392,-0.935852,0
-32.5156,33.3173,-40.5795,0.00795163,-0.999968,0
-29.5277,26.224,12.1449,0.13577,-0.99074,0
-5.73692,35.9102,12.8139,0.0277076,-0.999616,0
3.90516,43.5489,19.0258,0.507122,-0.861874,0
-18.1647,35.6301,19.6597,0.0332169,-0.999448,0
2.68525,27.1506,19.0487,-0.104079,-0.994569,0
13.9701,55.5263,-22.0636,-0.207606,-0.978213,0
19.905,23.9202,11.7539,-0.171703,-0.985149,0
-23.4146,32.6404,23.1486,0.0287605,-0.999586,0
29.8575,36.2349,-8.08587,-0.734619,-0.67848,0
-30.8657,29.7086,18.7072,0.144126,-0.989559,0
20.7129,24.1699,11.0955,-0.184946,-0.982749,0
-23.6883,42.7867,29.6808,0.26185,-0.965109,0
20.4578,28.0122,16.404,-0.0771734,-0.997018,0
-6.74748,46.047,16.5409,0.338018,-0.94114,0
-20.4247,45.2139,18.6403,0.363301,-0.931672,0
7.66893,30.7305,-4.47038,-0.139713,-0.990192,0
24.0383,43.3019,12.2274,-0.543034,-0.839711,0
-3.32392,50.4393,22.3132,0.331624,-0.943412,0
3.48701,34.8127,-25.5523,0.388616,-0.9214,0
-24.5204,41.611,-24.3237,0.319087,-0.947725,0
-1.53569,40.9227,20.9646,0.338787,-0.940863,0
-26.4374,39.4631,-30.9603,0.258361,-0.966048,0
3.09056,29.5589,19.105,-0.0600875,-0.998193,0
-22.7118,29.7166,14.16,0.0571929,-0.998363,0
-2.10189,33.8063,-20.4541,0.0762922,-0.997086,0
-24.6813,36.9712,8.05927,0.220855,-0.975307,0
-27.8066,39.5633,14.666,0.279857,-0.960042,0
-20.4402,31.0053,-22.2427,0.0290952,-0.999577,0
1.62307,31.8976,-12.0489,-0.149482,-0.988764,0
-23.318,42.747,10.174,0.330619,-0.943764,0
-5.34926,41.3599,18.1575,0.279031,-0.960282,0
-1.46727,46.1058,-29.252,0.425709,-0.90486,0
-28.5641,33.054,-36.6999,0.0308183,-0.999525,0
28.7779,23.5331,5.73962,-0.329801,-0.94405,0
42.0899,28.5714,10.432,-0.746549,-0.66533,0
-3.27846,54.3382,-29.9379,0.338997,-0.940787,0
-24.4094,38.4132,10.8695,0.257696,-0.966226,0
24.8693,47.1143,18.0382,-0.458829,-0.888524,0
2.11761,41.4685,-24.5881,0.59554,-0.803326,0
17.7378,29.8243,4.18134,-0.153284,-0.988182,0
40.0136,25.2708,-5.04501,-0.770942,-0.636905,0
-12.7667,35.2057,27.2044,0.0190503,-0.999819,0
-28.4575,26.1606,11.1817,0.132423,-0.991193,0
-15.7128,47.5674,26.2438,0.37426,-0.927324,0
-5.92118,34.6893,-28.6232,0.0494027,-0.998779,0
-14.8652,41.1544,-25.167,0.249699,-0.968324,0
-25.8895,27.2384,30.5168,-0.00778076,-0.99997,0
3.86095,27.0791,-14.025,-0.138707,-0.990333,0
8.76074,29.6869,17.0323,-0.0881553,-0.996107,0
31.5474,21.4234,0.509796,-0.401192,-0.915994,0
-3.26325,40.6696,17.0507,0.31227,-0.949993,0
-11.5397,49.8237,-33.8172,0.396303,-0.91812,0
3.01418,31.5107,-7.65552,-0.158109,-0.987422,0
30.2105,36.8126,-11.4853,-0.734939,-0.678133,0
39.7917,21.5961,3.0597,-0.569026,-0.822319,0
12.7331,31.45,13.2245,-0.0922714,-0.995734,0
-19.3011,45.8476,25.8557,0.358783,-0.933421,0
-32.3126,27.6278,-28.1646,0.141862,-0.989887,0
-28.3954,32.9934,29.2344,0.105188,-0.994452,0
-28.0603,35.6974,22.2124,0.186942,-0.982371,0
-20.3383,41.6102,-35.7877,0.211186,-0.977446,0
9.11936,55.2741,-20.6112,-0.0281906,-0.999603,0
-26.5972,40.8379,-41.7407,-0.105381,-0.994432,0
-13.3034,37.9407,29.32,0.108978,-0.994044,0
1.2286,37.3772,-22.1587,0.479859,-0.877346,0
-28.0156,39.9867,-24.6254,0.280621,-0.959819,0
6.20319,51.7415,15.7691,0.375571,-0.926794,0
35.6019,37.236,-8.79352,-0.765579,-0.643341,0
-0.460624,43.0303,15.8248,0.417967,-0.908462,0
6.92241,55.3233,15.6823,0.354234,-0.935157,0
-34.9275,36.7737,-31.1231,0.195751,-0.980654,0
1.19297,50.1792,-30.3864,0.290798,-0.956785,0
-5.48682,38.2636,18.4946,0.188691,-0.982037,0
-33.9563,32.2181,17.7714,0.200253,-0.979744,0
-17.8483,40.1699,17.5851,0.259283,-0.965801,0
29.7904,37.9097,-14.7198,-0.728802,-0.684724,0
-15.2657,46.3191,11.923,0.357771,-0.933809,0
-10.6672,49.4437,-29.6366,0.390737,-0.920503,0
36.9018,35.1068,16.5655,-0.783629,-0.621229,0
-26.3417,40.0829,-34.1059,0.200132,-0.979769,0
-30.4121,35.9028,25.114,0.181806,-0.983334,0
41.9106,27.6757,0.805801,-0.712548,-0.701624,0
-18.2522,40.9284,22.7327,0.277291,-0.960786,0
-32.2534,25.9341,-38.1844,0.0257255,-0.999669,0
-13.5364,43.4909,24.4931,0.317342,-0.948311,0
15.8688,47.3486,20.6647,0.0478221,-0.998856,0
-7.02956,36.5823,-30.9254,0.0892625,-0.996008,0
-20.3653,43.1137,28.0017,0.311138,-0.950365,0
4.03925,37.7025,-24.9876,0.539961,-0.84169,0
6.74414,54.6764,-26.9459,0.0952626,-0.995452,0
18.9889,29.2308,4.99443,-0.162504,-0.986708,0
26.5077,43.1825,-16.8412,-0.681112,-0.732179,0
-4.081,33.3251,27.5677,0.0203876,-0.999792,0
39.9607,21.789,-4.32915,-0.675529,-0.737333,0
10.5552,52.7871,18.3701,0.301783,-0.953377,0
24.8249,44.6545,-17.9029,-0.633729,-0.773555,0
4.12026,27.3531,3.67722,-0.146467,-0.989216,0
-19.1485,39.3994,20.8462,0.235879,-0.971782,0
33.1618,40.3137,-11.0034,-0.737738,-0.675087,0
0.5592,49.2516,-26.6121,0.274664,-0.96154,0
37.0966,26.2768,16.0048,-0.679987,-0.733224,0
21.6232,29.3787,-3.09339,-0.129245,-0.991613,0
-1.67345,32.5894,-27.4035,0.073747,-0.997277,0
-33.4744,33.5621,-31.1389,0.159179,-0.98725,0
-3.86515,28.9193,7.38502,-0.115296,-0.993331,0
38.6384,21.1344,8.68877,-0.55296,-0.833208,0
42.4958,21.4089,13.5015,-0.606067,-0.795414,0
-28.6176,26.43,10.8518,0.132374,-0.9912,0
-31.068,29.3007,19.5465,0.131666,-0.991294,0
28.0142,39.4053,20.0577,-0.610224,-0.792229,0
12.3898,56.0318,-20.3635,-0.171803,-0.985131,0
-0.248651,55.5737,-26.7627,0.245456,-0.969408,0
-13.7698,47.6749,11.1983,0.358804,-0.933413,0
35.0994,33.4989,-4.90182,-0.727483,-0.686125,0
4.28655,33.5823,17.6447,0.162022,-0.986787,0
11.7112,53.3533,-20.0447,-0.0896475,-0.995974,0
